ncols 240
nrows 102
xllcorner -123
yllcorner 43.9416666667
cellsize 0.0083333333333
NODATA_value -9999
277 271 270 251 230 221 221 221 222 224 225 225 226 228 229 230 231 233 233 235 237 237 239 241 242 244 244 247 248 260 261 263 256 263 259 262 262 265 267 270 284 284 274 277 279 280 285 291 290 308 299 303 341 376 396 383 373 360 392 397 397 372 382 395 405 409 406 398 417 414 416 424 436 443 458 457 484 481 492 487 484 485 469 477 498 497 496 481 473 491 481 492 469 458 488 469 490 493 461 474 458 491 479 466 455 469 486 476 454 435 437 436 437 433 431 430 432 427 426 426 423 421 420 417 416 416 410 409 406 404 420 427 448 447 477 433 407 388 415 444 466 496 488 485 473 465 461 463 460 458 448 444 425 428 416 405 415 428 426 420 417 393 376 358 343 327 321 306 316 305 292 282 277 266 260 251 245 232 226 219 211 208 203 197 192 189 175 182 158 171 161 160 143 139 150 137 129 123 119 116 120 120 116 113 110 102 94 89 85 84 80 79 79 77 72 72 70 70 67 70 80 78 76 68 65 65 71 71 69 62 61 59 59 59 55 57 65 64 63 52
269 269 266 254 246 223 221 221 221 222 224 225 225 227 228 230 230 231 233 233 235 237 240 239 240 254 255 257 261 266 273 283 295 304 260 260 262 264 265 266 267 270 275 279 287 282 282 283 310 314 291 323 335 394 379 389 396 411 413 410 407 396 405 406 415 419 435 417 407 425 424 429 427 419 442 452 460 453 446 455 476 459 450 451 454 465 479 483 468 461 464 491 454 480 458 474 474 472 463 440 448 470 483 471 463 474 435 440 445 435 438 440 435 438 429 433 428 426 425 424 422 418 418 415 413 411 410 416 446 452 478 463 451 463 473 475 461 439 388 407 444 459 485 484 478 472 473 473 466 461 453 449 442 442 441 439 437 444 437 436 409 399 378 356 369 354 334 314 305 304 302 290 274 267 256 249 241 233 226 218 212 206 203 197 192 189 186 178 175 170 166 161 155 153 148 143 137 129 124 118 108 105 103 100 108 106 102 90 88 84 80 84 87 84 83 70 69 83 82 80 78 78 76 74 66 73 71 71 69 61 59 59 57 57 57 58 58 64 63 56
234 236 219 254 240 227 221 220 221 221 222 224 225 225 227 228 228 230 231 234 234 237 240 247 249 252 253 257 263 270 276 286 289 307 317 330 286 262 274 285 306 306 307 291 296 297 285 287 289 291 294 294 297 317 333 333 332 380 359 393 383 381 393 390 385 398 398 395 396 400 407 417 414 413 414 426 428 430 425 434 441 440 439 442 443 451 473 455 453 442 461 481 470 456 438 438 437 437 438 436 441 441 453 448 445 456 438 435 438 440 442 439 430 430 428 428 436 427 421 420 418 417 415 413 412 408 406 403 409 422 435 449 461 470 476 479 483 470 464 417 444 463 466 469 469 479 471 471 466 461 458 449 441 431 415 439 445 433 422 413 393 386 376 370 379 345 317 307 298 283 282 284 280 266 257 248 240 231 223 219 211 204 201 196 192 190 186 181 176 172 167 151 145 138 132 129 125 121 117 116 109 100 96 95 93 92 92 92 95 83 83 82 80 80 72 70 83 81 80 80 78 76 74 74 73 71 71 69 69 59 59 59 57 57 57 57 58 58 63 59
211 215 215 218 236 240 226 219 219 221 222 222 223 225 225 226 228 228 231 233 235 237 243 245 248 243 247 254 263 271 279 291 298 292 311 326 329 337 305 304 323 362 371 377 377 357 312 311 288 290 294 296 298 302 303 300 304 304 328 331 351 353 383 369 365 390 374 380 369 372 391 379 382 394 395 406 394 415 406 410 420 374 435 431 437 438 445 437 435 464 471 480 468 460 456 448 439 435 436 439 437 434 435 433 433 432 441 439 434 437 431 429 427 426 430 431 442 431 425 418 419 416 413 411 409 411 429 455 400 400 406 427 458 471 470 476 483 476 461 447 432 450 474 477 468 473 472 473 468 463 452 448 435 424 413 400 396 388 382 380 395 369 373 332 326 303 290 280 274 267 275 258 282 267 256 247 222 234 223 212 211 200 197 196 191 191 185 181 176 170 157 146 141 138 138 140 128 124 122 117 114 111 106 101 98 93 85 83 80 78 77 75 72 72 69 83 81 81 80 78 76 76 74 73 71 71 69 69 62 59 59 60 59 57 57 57 57 58 58 56
211 212 215 235 249 243 224 217 218 219 221 222 222 223 225 225 227 229 231 233 242 242 244 238 240 245 249 254 264 278 282 291 304 308 312 297 315 333 309 276 283 291 339 363 374 379 382 383 380 300 305 304 308 299 318 325 332 308 307 307 313 315 316 318 320 324 330 332 334 336 338 346 341 349 350 351 364 371 377 391 390 412 380 411 406 380 432 432 434 441 462 480 471 467 470 470 456 447 449 434 437 438 431 437 439 445 430 429 428 430 427 426 425 429 431 439 444 437 443 434 435 420 417 412 409 409 406 427 443 425 393 391 398 434 463 474 480 482 472 466 460 449 481 478 481 482 472 470 456 437 422 379 429 423 378 350 344 338 354 347 332 316 316 303 299 296 286 315 311 303 298 289 272 265 257 247 239 228 224 215 210 207 201 197 194 189 183 180 177 169 160 154 150 144 135 133 130 128 119 120 116 109 111 108 95 88 83 82 82 78 77 75 75 70 85 83 81 80 78 76 76 74 73 73 71 68 63 61 61 64 64 62 62 57 57 57 56 58 62 62
211 212 226 222 234 233 216 217 218 218 219 220 222 223 224 225 228 228 235 238 240 240 240 249 254 260 272 269 276 283 289 294 298 284 269 261 272 261 275 271 290 333 366 375 374 378 381 391 394 391 378 367 350 347 346 333 333 332 311 312 315 317 319 320 323 330 340 341 341 341 344 350 357 361 389 415 369 398 411 418 411 423 429 430 433 430 417 424 432 449 459 481 452 451 439 449 454 452 437 434 431 440 442 439 432 428 426 429 431 423 428 444 438 432 434 440 456 446 446 454 468 445 428 446 417 415 418 403 409 449 444 388 387 397 406 446 457 474 480 475 482 447 466 478 487 481 470 462 426 390 404 375 392 361 356 347 363 346 331 323 317 312 311 316 298 340 375 356 316 298 289 279 273 267 252 244 237 231 223 216 210 205 199 195 195 189 183 178 174 167 158 153 149 136 130 125 120 117 112 111 103 103 94 93 90 86 83 82 80 83 85 85 72 75 83 81 80 78 78 76 75 74 73 71 71 66 63 59 62 62 64 62 59 57 57 57 56 56 59 62
210 210 211 212 213 213 214 215 217 218 218 219 220 222 223 224 226 231 235 236 233 240 249 255 260 266 271 280 288 290 293 301 300 296 276 267 258 259 265 266 269 272 286 318 377 384 407 417 420 409 407 400 393 385 379 365 365 371 374 362 362 346 332 340 367 360 347 348 339 347 345 377 394 384 402 409 416 423 426 428 424 427 431 432 447 435 427 416 430 438 436 458 477 473 438 429 433 429 428 434 429 437 440 426 425 429 433 437 426 433 440 439 429 424 428 440 445 426 442 450 456 469 468 456 425 459 444 448 395 411 441 426 400 386 384 383 409 438 461 480 481 474 480 480 482 469 454 419 416 442 452 442 430 417 410 379 394 404 380 366 389 373 356 336 332 339 346 324 299 286 279 271 270 263 257 242 236 230 223 217 212 203 199 194 191 185 181 176 170 162 146 139 134 128 123 129 118 114 112 104 101 98 96 91 88 90 86 85 88 86 72 70 73 83 81 80 78 78 76 75 74 73 71 71 69 69 63 62 62 62 62 62 60 58 57 57 56 55 58 62
215 213 214 211 212 213 214 214 216 216 218 218 219 220 222 223 228 230 233 232 237 242 250 258 261 267 273 282 289 291 267 256 276 286 274 265 258 257 259 263 267 268 272 285 312 341 381 382 402 395 399 399 396 389 384 389 388 386 385 373 370 351 380 383 382 367 356 372 382 377 392 402 397 406 413 421 427 432 438 447 434 427 431 451 457 447 426 383 390 423 427 435 448 462 443 429 429 430 433 425 430 433 429 439 425 421 423 426 419 422 431 422 420 416 417 431 425 419 423 427 438 439 466 458 452 461 474 442 409 423 414 444 442 407 416 399 382 422 442 464 475 479 482 485 481 472 463 461 459 466 458 451 439 428 407 398 429 418 399 384 380 349 353 354 334 317 307 298 292 282 275 268 257 264 247 240 234 228 221 213 209 201 197 192 188 183 179 174 167 159 153 148 143 142 137 131 129 115 112 107 104 101 99 99 104 94 94 90 86 75 72 73 73 83 81 80 78 76 75 75 73 73 71 69 69 69 67 62 62 62 62 60 60 60 58 57 58 55 59 61
216 215 210 211 211 211 212 212 214 215 216 216 218 219 220 224 228 233 236 223 226 235 237 230 246 269 260 277 262 258 240 243 249 263 252 266 276 279 284 285 290 295 273 274 276 310 316 370 383 387 393 377 361 391 409 402 416 408 406 406 406 409 413 398 402 392 369 367 404 418 420 418 410 413 417 423 424 431 439 458 455 444 438 440 440 429 424 424 426 388 421 425 439 461 438 423 425 430 422 424 428 424 436 438 432 426 418 417 418 415 415 415 414 412 411 413 412 413 416 418 419 417 421 426 455 468 462 441 460 467 444 462 461 452 451 460 434 398 403 416 457 470 476 477 476 477 473 458 469 464 455 448 440 432 424 437 429 415 393 392 302 283 276 273 277 267 250 246 253 261 271 264 259 254 246 238 232 226 222 211 203 186 180 181 183 178 174 171 166 159 156 146 143 140 137 132 129 125 120 117 109 110 109 106 102 99 93 90 88 77 72 72 70 75 80 78 76 75 75 73 73 71 69 69 67 67 66 61 61 60 60 60 60 60 60 58 58 56 56 59
208 209 208 210 210 210 211 212 214 214 215 216 216 217 218 218 219 219 221 222 223 225 227 228 230 231 233 233 236 237 238 241 243 244 247 265 275 264 264 274 280 309 301 307 290 286 292 292 325 332 336 350 372 383 399 410 401 403 416 430 440 463 430 416 399 408 411 403 389 410 419 423 417 420 424 427 431 430 437 450 471 461 454 444 423 428 436 427 424 422 407 409 422 439 435 421 427 411 417 423 430 434 431 419 428 436 441 432 418 420 418 415 412 411 408 408 409 412 414 413 415 415 413 413 413 431 432 462 438 428 430 433 437 452 463 458 455 451 447 459 471 467 467 467 464 461 449 407 430 417 423 406 413 413 419 407 387 315 314 297 296 280 314 319 303 310 297 293 272 246 233 260 254 250 247 238 228 222 216 209 201 191 175 165 160 156 159 170 164 160 147 147 136 135 135 131 127 124 115 110 105 105 101 97 96 93 91 86 80 77 73 70 72 72 78 78 76 75 73 73 71 69 69 68 67 67 66 62 61 60 60 60 60 60 60 58 58 58 56 58
206 207 207 208 209 210 210 211 212 213 213 214 216 215 216 216 218 219 220 221 223 223 225 226 228 229 232 233 234 258 271 280 276 271 255 250 252 264 277 280 279 329 347 353 332 322 351 332 325 315 295 301 336 354 383 396 392 383 399 418 438 441 452 428 416 427 429 423 423 403 406 423 424 424 426 423 436 439 443 451 469 463 455 430 440 444 443 434 420 420 419 406 419 419 417 423 415 411 428 429 429 420 414 413 412 414 431 433 432 433 434 416 408 405 408 403 404 405 408 410 412 407 409 405 403 402 402 411 418 383 431 388 419 439 406 429 422 461 451 444 464 465 465 463 469 459 450 429 401 403 388 352 343 343 337 323 321 317 309 344 375 358 342 329 320 307 291 281 271 267 260 220 249 244 240 227 223 220 213 208 191 182 175 167 160 151 146 142 142 142 133 128 125 124 132 130 126 123 113 110 105 100 99 96 93 89 86 83 83 81 76 70 73 80 78 76 75 73 73 71 71 69 68 68 67 66 64 61 59 59 60 60 60 60 58 60 58 59 58 56
205 206 207 208 208 209 210 211 211 212 213 212 213 213 214 216 216 218 218 239 221 222 224 225 227 229 245 252 264 302 314 315 307 292 280 263 251 252 257 261 289 296 325 334 344 365 377 381 376 386 361 359 333 342 328 356 358 369 373 396 404 412 428 450 458 452 455 446 434 420 413 418 417 412 427 431 432 440 436 447 468 469 454 452 457 451 441 434 418 417 415 416 403 414 412 408 410 423 415 412 415 410 419 413 409 411 423 413 412 410 431 424 419 422 416 409 398 397 402 395 393 397 389 386 392 393 389 378 377 373 372 373 370 370 372 381 389 402 416 451 457 467 476 477 479 477 464 459 457 441 429 409 404 378 364 349 349 337 393 401 391 370 348 329 304 306 302 272 261 260 253 217 225 239 232 221 220 208 201 197 193 188 178 173 170 166 158 151 148 140 137 134 134 119 116 127 124 121 118 110 105 100 99 96 92 89 86 83 81 80 78 76 71 78 76 75 73 73 71 69 69 68 68 66 66 66 64 61 59 59 59 59 60 60 60 60 58 58 59 56
205 204 205 206 207 207 207 207 208 209 211 211 214 213 217 219 219 221 223 241 258 242 223 224 225 298 283 273 283 282 313 332 333 297 289 284 262 267 277 277 327 330 340 347 325 361 375 379 380 397 396 393 381 378 359 363 345 340 351 363 375 357 388 404 411 422 434 462 454 435 432 440 428 422 421 423 435 463 453 445 452 464 462 454 441 431 425 414 413 413 413 412 414 414 415 405 419 413 409 416 416 417 413 408 410 404 404 404 403 402 405 408 408 415 417 411 409 402 403 397 398 393 388 388 382 385 377 374 378 392 404 416 405 390 388 388 414 411 434 450 464 473 480 486 486 482 472 466 455 449 441 430 417 394 376 396 420 414 406 402 391 376 348 323 312 294 289 281 274 253 247 230 202 232 222 222 220 214 204 195 184 180 182 178 175 169 156 150 146 141 134 126 125 120 115 114 121 108 116 111 108 105 102 97 91 89 84 83 80 80 75 71 73 78 76 75 73 71 70 69 68 68 66 66 66 64 62 61 59 59 57 59 60 61 61 60 59 58 59 57
203 204 204 205 205 205 206 207 208 209 210 211 213 216 219 238 220 229 223 226 222 242 223 222 223 260 296 308 314 319 326 324 328 305 309 302 276 266 292 279 300 366 384 392 382 348 403 398 401 409 417 401 398 392 379 384 376 374 376 333 358 357 358 370 378 387 427 438 464 462 448 453 445 435 426 428 427 451 455 455 456 449 435 431 412 413 410 410 410 415 428 416 408 407 407 407 415 414 413 408 411 408 404 403 401 402 401 405 404 402 399 397 395 395 403 397 399 390 390 391 385 383 384 383 380 376 373 374 374 388 418 428 426 427 433 436 438 442 453 459 463 478 485 492 491 484 477 458 452 441 433 426 416 414 417 418 420 414 394 387 378 367 350 326 297 286 276 263 262 249 212 206 200 190 187 220 219 215 205 197 187 176 174 174 155 161 151 145 138 135 135 127 128 125 120 117 114 105 101 110 107 97 92 94 91 86 86 81 80 78 71 70 73 76 75 73 71 70 69 68 68 66 66 66 64 64 64 61 59 59 57 57 58 60 61 60 59 59 61 61
203 203 204 205 204 205 205 206 207 208 209 209 229 236 237 237 232 235 216 216 217 218 219 220 221 223 239 253 317 325 326 332 336 322 309 300 281 282 310 305 315 344 371 391 396 363 396 410 417 416 416 409 400 396 396 391 394 384 385 376 385 390 382 386 379 383 404 417 421 419 428 437 455 436 443 441 432 436 433 436 448 440 443 446 425 414 407 408 406 409 424 415 414 416 410 402 410 404 411 412 414 410 408 405 398 402 398 397 403 411 398 399 396 392 390 388 389 386 385 383 388 390 377 381 376 373 371 367 366 374 402 408 369 370 395 398 405 422 446 459 459 467 475 488 488 479 471 458 448 439 428 418 411 406 413 424 421 410 399 394 382 361 314 307 284 282 273 245 214 219 196 192 187 183 181 176 212 207 201 197 193 185 176 169 161 155 154 144 138 141 136 132 127 124 120 119 112 109 105 97 95 95 92 89 87 84 84 79 76 76 71 70 71 68 73 71 71 70 68 68 66 66 64 64 64 64 64 59 59 57 57 57 57 57 58 61 63 61 61 62
203 204 203 204 205 204 205 206 206 207 208 208 230 232 236 222 217 234 213 215 215 217 217 219 219 221 222 222 231 246 289 288 309 249 271 311 333 341 329 334 328 353 365 386 406 410 412 418 455 444 422 423 414 417 414 413 403 398 394 396 401 399 398 387 391 381 386 392 398 407 414 415 433 416 421 433 444 442 441 437 426 427 429 430 429 427 414 412 405 404 412 424 421 421 400 401 399 398 397 397 397 404 412 410 408 398 392 393 396 405 404 401 396 391 387 384 383 387 399 413 426 441 413 376 371 370 367 364 361 364 362 360 358 358 364 369 372 391 420 437 448 458 470 470 473 466 457 446 441 435 426 407 395 383 378 418 423 417 409 394 374 324 302 281 265 243 253 223 206 199 198 201 216 225 188 173 173 177 196 192 186 179 174 170 166 160 152 148 142 138 135 130 127 123 118 114 109 106 103 100 97 95 95 92 89 86 84 81 78 75 71 78 76 75 68 71 66 68 68 66 66 64 64 63 62 61 62 61 59 59 57 55 57 57 57 58 59 59 59 62
202 203 203 203 204 203 204 205 206 206 206 208 214 209 209 210 210 212 213 213 213 215 215 217 218 220 221 222 223 225 232 243 240 252 314 317 326 350 360 370 368 373 390 400 430 444 439 425 467 475 460 430 429 442 433 422 421 409 420 410 406 400 397 398 405 407 408 396 398 393 392 395 395 401 405 416 415 412 421 412 409 409 408 402 400 408 416 412 401 405 418 423 411 406 395 399 398 411 399 408 412 391 391 407 405 391 389 388 388 387 386 386 385 392 393 390 384 391 416 435 428 434 432 395 368 365 362 361 358 354 353 355 354 375 374 408 412 376 368 426 442 452 459 460 459 454 448 442 433 429 411 388 374 358 351 377 414 424 409 397 342 306 283 271 261 232 213 205 207 207 209 241 284 275 233 197 173 164 168 190 182 180 174 168 164 158 150 148 145 136 134 125 121 118 118 115 112 107 103 98 95 92 90 87 86 84 83 78 75 75 78 76 75 73 68 70 68 68 66 66 64 63 63 62 61 59 57 59 59 59 57 55 55 57 57 58 58 59 61 61
200 202 202 203 203 203 204 204 205 204 205 206 206 207 207 209 210 210 211 211 213 213 216 217 219 219 221 222 223 224 226 231 235 237 311 301 314 337 353 369 378 386 398 409 424 438 453 460 440 465 479 450 455 453 436 430 422 426 418 410 408 408 410 413 420 430 415 408 419 406 408 407 417 411 406 406 420 410 414 411 402 400 397 395 396 398 402 408 407 418 417 414 402 393 390 390 392 390 407 419 406 388 389 400 398 402 397 390 387 385 382 380 389 402 420 412 392 383 409 407 407 401 401 419 386 360 361 356 356 369 422 399 373 357 368 428 437 438 413 397 435 443 446 452 451 443 437 428 419 399 403 385 375 354 331 329 390 409 392 370 331 296 273 263 236 217 208 211 213 224 238 266 262 254 232 193 174 164 158 158 179 176 172 166 162 156 150 147 143 139 134 128 125 118 113 110 107 104 101 98 97 92 90 87 84 82 81 76 73 78 76 74 73 71 70 69 68 66 66 63 63 63 61 61 58 57 57 57 59 59 57 57 55 57 60 56 58 59 59 62
200 201 201 202 202 202 203 204 203 205 204 205 206 206 207 208 208 208 210 212 213 215 216 218 220 222 224 221 223 225 229 228 246 249 275 272 283 310 338 350 363 373 384 406 418 427 440 458 472 435 449 473 468 469 453 441 430 433 424 416 410 410 425 431 449 444 431 423 431 418 415 423 424 424 435 424 425 416 407 403 400 392 390 394 397 398 406 396 393 399 397 405 404 400 389 386 396 400 402 419 394 383 386 388 390 391 393 386 379 378 380 383 386 406 436 428 400 387 433 427 411 396 392 389 388 359 355 352 351 369 416 433 421 401 386 382 414 431 434 399 425 435 437 438 440 434 423 409 404 396 391 389 371 350 320 300 298 386 376 346 310 283 272 261 244 227 205 200 208 222 248 295 281 249 230 208 176 166 162 152 151 151 165 160 155 149 147 146 141 137 132 130 127 124 119 116 109 102 101 101 96 93 89 89 86 81 78 74 74 76 76 74 73 73 71 68 66 66 64 64 63 63 59 59 58 56 56 57 57 59 59 57 55 57 58 58 59 61 61 62
199 200 201 201 201 202 202 203 204 203 205 204 205 205 206 208 208 209 209 211 213 213 215 217 220 222 223 226 227 225 227 228 241 248 249 261 295 305 341 343 352 372 378 394 415 435 446 462 467 471 473 467 457 447 439 422 417 415 418 414 424 430 437 445 440 446 447 435 433 443 430 417 405 401 409 408 412 400 400 388 390 385 388 392 394 391 387 386 386 387 387 395 400 390 387 383 402 412 415 412 385 378 379 379 384 377 381 382 375 374 376 389 413 399 433 423 400 428 439 434 418 425 407 377 360 352 350 348 346 365 411 427 426 426 426 408 415 424 431 426 420 423 431 433 430 428 421 422 417 412 403 376 350 328 310 295 286 349 349 320 291 273 257 248 243 238 237 198 197 203 244 307 284 267 254 236 195 185 163 154 147 144 140 145 152 146 143 139 136 132 129 128 125 122 119 115 110 105 102 99 96 95 92 89 84 79 76 81 79 78 78 76 73 71 71 69 66 64 63 63 61 61 59 58 56 56 56 56 57 57 60 58 55 55 56 58 59 62 62 62
200 199 200 201 200 201 202 202 202 202 203 204 204 205 205 207 208 208 207 210 211 212 213 217 223 221 223 224 226 229 226 229 234 242 252 267 265 294 331 332 364 377 389 395 403 419 433 430 448 456 457 467 457 444 424 407 408 405 403 412 415 416 406 406 410 421 447 434 423 436 404 400 404 388 380 395 404 403 385 388 377 375 382 377 382 382 382 383 382 388 388 400 398 394 388 385 392 408 409 391 377 377 375 373 372 374 374 378 371 369 377 383 400 419 430 421 410 430 424 409 406 417 400 353 350 348 346 343 342 339 350 389 424 425 428 422 395 414 421 427 429 428 427 426 425 417 417 408 398 380 372 359 352 343 334 295 285 271 308 290 272 261 250 245 237 231 224 209 193 205 242 284 280 263 237 224 205 200 176 161 151 149 138 134 133 144 140 137 131 129 127 124 122 120 114 113 110 105 101 98 96 93 90 89 85 81 78 79 79 81 81 79 74 74 73 69 66 63 61 61 61 61 59 56 56 56 54 56 56 59 58 60 55 53 56 58 59 61 64 67
198 199 199 200 201 200 201 202 201 202 202 203 204 204 205 206 207 207 207 212 211 210 212 212 217 223 223 227 229 229 232 229 233 262 282 287 297 293 309 330 341 365 372 396 402 416 425 424 434 430 443 450 449 407 408 384 384 393 401 411 422 436 430 433 416 420 430 438 431 412 411 391 381 375 385 383 392 390 380 378 372 378 376 382 378 380 381 383 381 381 381 391 398 394 395 394 396 394 397 385 379 372 377 369 371 369 369 369 367 365 368 376 387 404 418 417 408 407 402 395 391 378 382 356 346 344 342 339 345 358 336 344 353 347 369 395 401 411 417 422 426 424 426 424 417 411 406 400 379 372 366 402 388 366 332 303 284 263 255 275 259 248 243 238 235 222 217 195 194 206 235 284 291 264 236 224 208 195 185 175 169 151 147 138 131 128 138 134 131 124 124 123 120 117 114 110 107 104 101 98 95 91 90 87 82 81 76 79 79 81 86 84 81 76 73 68 66 61 61 61 59 59 58 56 56 56 54 54 54 55 58 60 55 53 64 61 59 61 65 71
199 198 199 199 200 200 200 201 200 201 202 202 203 203 204 205 206 207 208 205 207 207 209 210 213 217 227 233 235 238 243 243 237 236 272 262 287 270 304 303 329 342 368 385 350 368 365 375 379 423 430 404 386 363 375 382 375 380 397 430 429 425 439 440 420 426 429 418 401 393 389 384 367 370 388 388 383 385 377 361 358 379 382 384 381 384 386 380 387 390 379 393 384 388 384 382 385 378 383 380 386 386 379 379 381 379 367 361 363 361 366 367 376 398 413 404 385 385 379 376 384 365 349 343 342 340 338 335 334 361 384 395 408 412 410 409 409 416 419 416 415 416 417 419 419 417 415 406 408 403 401 395 385 361 334 292 277 250 259 271 254 244 239 230 222 219 196 191 199 221 278 303 287 253 227 202 195 188 181 173 169 152 147 144 134 127 127 126 125 119 113 119 118 114 111 108 105 102 99 96 93 90 87 84 82 81 77 79 77 79 82 81 81 76 71 66 63 61 61 59 59 58 56 56 56 56 54 52 54 54 55 57 58 55 58 55 58 62 67 73
198 197 198 199 198 199 200 200 200 200 201 202 202 202 203 204 206 206 208 208 206 206 207 208 211 214 224 229 230 238 246 246 252 250 249 242 246 261 253 256 264 263 309 347 341 345 340 346 356 380 391 385 370 343 359 370 383 392 398 417 427 439 438 441 447 431 421 405 393 386 363 364 362 365 384 362 370 374 366 361 369 371 372 371 374 374 371 377 387 373 368 384 371 377 368 367 367 363 367 373 380 386 387 386 391 382 364 357 356 356 357 369 380 389 401 387 388 381 366 357 361 353 341 339 342 338 334 331 329 337 367 390 405 409 415 414 414 410 393 401 402 407 412 415 418 411 406 402 393 389 386 357 372 354 320 287 264 241 241 250 262 239 238 230 220 215 194 193 196 257 314 293 270 244 212 201 190 174 163 160 153 149 139 135 131 125 122 122 117 114 111 108 107 106 103 100 105 102 99 96 93 90 85 84 79 77 76 76 76 76 76 76 74 71 69 66 61 61 59 59 58 58 56 56 56 54 54 54 54 54 55 55 55 57 58 58 59 64 67 68
197 197 198 198 198 198 199 200 200 200 200 201 202 201 202 202 204 205 207 205 205 206 206 208 210 212 217 223 233 238 242 245 249 252 257 262 265 267 287 311 298 290 276 283 293 306 323 307 321 330 353 362 345 344 361 379 392 391 398 412 409 414 420 432 412 403 398 388 383 382 376 359 340 333 348 333 335 352 351 360 372 369 369 369 375 367 365 374 367 370 361 361 360 360 359 359 357 357 357 359 367 366 370 383 384 375 359 355 366 358 358 363 364 370 381 382 380 378 366 355 342 339 336 350 346 341 340 327 325 323 325 334 356 367 382 375 377 372 382 397 403 406 409 409 411 403 395 383 368 354 341 345 334 288 308 297 263 243 232 229 242 233 233 224 210 195 191 211 219 307 295 278 256 232 209 187 174 165 161 148 147 144 140 134 132 125 122 118 115 115 112 110 107 102 99 97 95 92 91 88 88 85 82 80 79 80 76 74 73 74 73 71 69 68 66 64 61 59 59 59 58 56 56 56 54 54 54 52 54 54 54 54 55 55 58 58 58 59 67 68
197 196 197 198 197 198 198 199 199 199 200 200 200 200 201 203 203 204 205 204 205 209 209 209 210 213 216 220 230 229 234 241 244 249 257 252 264 267 285 302 337 338 331 323 295 312 318 318 321 312 316 332 333 349 364 376 389 399 399 431 433 434 426 420 404 388 374 371 371 369 371 343 354 372 370 366 361 360 363 355 355 359 359 359 360 360 360 361 358 357 357 356 356 357 354 354 353 352 352 352 352 353 358 359 381 372 362 359 371 372 365 358 353 354 357 358 358 353 350 346 339 335 332 337 347 350 355 346 321 320 317 315 325 333 338 354 364 371 387 396 400 403 405 409 407 399 392 383 376 361 309 316 294 285 276 267 242 237 230 222 217 221 212 204 199 193 199 216 264 297 286 263 249 210 189 175 171 166 157 152 146 141 137 134 130 124 120 119 116 117 114 109 105 105 102 101 93 97 95 92 86 85 85 83 80 79 77 72 71 73 71 69 68 66 64 63 61 59 58 58 59 59 58 56 56 56 54 52 52 52 54 54 53 55 58 58 61 64 57 65
196 196 196 197 197 197 198 198 198 199 199 200 199 200 200 202 202 203 203 204 206 206 211 213 209 212 211 217 214 222 225 228 223 246 266 234 276 280 278 293 339 369 371 357 339 335 333 329 335 321 333 349 348 353 361 367 376 385 400 398 414 430 410 405 389 379 372 369 359 343 347 333 355 360 362 364 367 362 366 362 352 354 354 356 355 354 350 351 353 354 352 363 360 350 353 349 351 350 355 357 348 347 350 353 367 375 372 367 380 381 364 354 357 355 348 339 337 349 336 333 331 332 340 349 346 349 354 358 367 342 316 320 321 321 328 347 366 374 382 391 395 401 404 406 406 392 391 388 390 380 372 360 334 314 298 275 274 251 234 220 212 207 204 199 194 189 198 226 292 291 276 269 236 209 200 189 179 170 164 165 158 165 145 132 128 124 123 122 119 113 111 108 110 108 105 103 100 94 91 88 89 86 85 82 80 79 74 72 71 72 71 68 66 66 64 63 61 59 58 58 58 59 59 57 57 57 56 54 54 52 54 54 53 55 58 61 64 65 61 57
196 195 196 196 197 197 197 198 198 198 199 199 200 199 200 201 203 206 203 203 203 205 205 213 223 221 217 217 212 215 230 228 234 236 230 249 261 263 288 327 347 360 394 386 360 329 339 341 343 340 348 353 357 353 356 361 367 373 379 387 400 411 418 407 389 390 379 369 360 340 318 350 362 357 367 368 361 373 374 366 344 353 354 357 364 361 349 350 349 348 362 368 368 353 363 356 347 350 351 351 346 347 351 359 364 371 379 377 368 370 375 371 362 356 352 351 347 339 334 330 329 332 343 344 344 345 359 364 374 372 362 348 372 364 361 346 344 365 388 392 392 394 397 403 401 392 393 392 384 378 367 345 317 292 286 274 247 235 230 221 216 203 200 195 192 188 186 218 288 279 273 261 243 226 212 209 192 191 185 176 172 164 145 133 129 127 124 122 117 112 115 114 113 108 105 98 100 97 94 91 89 86 83 82 80 77 72 71 69 71 69 68 66 64 64 63 61 59 58 58 56 58 57 56 59 59 57 55 54 54 54 54 55 56 58 61 64 64 64 59
194 195 195 196 195 196 197 197 198 197 198 198 199 198 200 201 207 217 229 223 210 205 206 205 207 214 227 229 238 228 243 244 258 277 278 275 271 286 296 321 316 337 362 374 358 342 349 351 350 355 364 370 366 377 380 380 386 376 372 373 381 382 387 396 394 380 375 369 332 314 342 358 363 371 391 374 371 383 383 361 354 347 350 355 368 351 347 349 356 344 350 368 365 359 362 362 350 350 349 363 361 359 355 361 358 346 360 365 344 349 354 370 371 370 353 346 338 332 343 333 323 329 335 340 342 349 354 373 377 373 371 357 379 386 381 365 339 337 346 389 389 390 390 396 390 383 378 376 378 366 355 331 312 284 270 268 247 228 220 216 210 206 199 197 192 186 188 237 286 270 264 245 232 222 213 202 194 186 181 171 166 159 152 147 143 130 119 115 113 119 116 114 109 105 104 99 98 95 94 91 88 85 83 82 79 74 72 71 69 71 69 68 66 64 63 63 61 59 58 58 56 56 56 57 57 59 59 59 54 54 55 55 57 58 61 61 64 67 64 62
193 194 195 195 195 195 196 197 197 198 197 198 198 199 201 200 212 235 248 237 225 214 207 205 206 208 210 212 217 223 239 232 241 260 261 280 253 285 287 300 309 310 333 341 353 361 349 352 360 366 370 383 381 386 395 400 392 383 367 356 362 367 370 372 359 365 351 347 294 303 345 364 379 383 382 363 360 355 363 365 373 362 355 349 366 356 352 352 362 354 347 361 368 344 350 359 356 345 341 342 347 344 356 353 350 333 328 328 330 333 340 343 358 360 354 344 335 358 347 333 320 333 332 334 341 351 364 376 382 376 371 373 380 387 387 377 357 335 338 379 389 388 394 391 386 385 380 367 355 336 328 317 303 287 259 262 244 221 218 209 203 200 199 194 188 183 190 250 282 276 267 250 238 225 214 199 194 169 166 168 163 154 150 145 132 122 118 115 120 117 115 112 109 106 102 99 96 93 92 89 86 85 82 80 77 74 72 71 69 69 68 68 66 64 63 61 61 61 58 58 56 56 57 57 57 57 57 59 57 55 60 58 55 60 61 62 67 68 65 67
193 193 194 195 194 195 195 196 197 197 197 197 198 198 203 215 203 217 228 243 245 231 227 236 207 227 234 228 236 226 251 250 256 265 271 255 253 274 309 316 320 329 341 357 363 361 359 360 370 380 384 391 400 390 404 395 371 375 362 359 336 352 364 343 333 328 328 304 322 345 357 375 376 370 351 345 337 332 338 341 347 345 376 357 349 368 347 344 350 358 355 351 343 334 340 344 334 331 329 327 331 334 334 332 327 325 323 323 323 324 326 329 329 347 340 342 359 350 343 344 313 326 333 333 339 352 369 383 382 379 379 378 383 386 388 379 360 353 353 366 382 386 384 382 378 373 372 367 365 353 319 299 278 257 244 234 227 217 212 207 205 210 201 195 182 181 217 277 274 269 249 225 214 198 187 173 173 162 174 169 158 148 143 139 130 122 116 122 118 116 113 110 107 105 100 97 95 93 90 87 86 85 81 78 75 74 71 69 68 66 68 66 64 63 63 61 59 59 59 58 56 56 56 56 56 56 57 59 57 57 58 60 60 61 63 66 65 64 64 65
192 193 193 194 195 194 195 195 196 197 196 197 197 198 225 244 231 221 202 217 228 249 239 218 216 225 227 261 253 242 255 265 261 250 232 245 269 272 296 320 336 349 361 370 380 375 366 371 381 389 403 403 404 402 388 364 363 348 338 342 318 320 341 335 319 285 295 332 344 347 350 368 367 346 344 320 312 305 287 309 317 337 343 334 337 332 330 329 338 339 339 329 326 325 324 329 329 323 323 322 322 324 321 322 321 320 322 319 318 318 320 321 322 326 326 325 334 339 329 317 309 322 328 332 338 350 368 381 383 380 382 378 382 383 383 380 375 359 364 363 370 381 379 372 369 361 360 355 357 330 315 276 256 245 236 229 219 214 209 204 205 207 201 190 181 183 241 288 283 267 250 235 218 203 198 192 178 173 157 148 137 137 133 132 125 124 125 122 118 115 113 110 106 101 99 96 93 92 89 87 84 83 80 78 74 74 74 71 67 66 67 66 64 63 61 61 59 59 59 58 56 56 56 56 56 57 57 59 58 58 58 60 60 60 61 62 62 62 64 63
192 192 193 198 194 195 194 195 195 196 197 196 196 196 203 217 198 206 200 207 214 220 214 208 205 211 216 224 233 234 234 247 243 234 227 235 253 291 305 319 335 343 360 375 383 386 384 375 382 393 409 418 400 368 352 347 337 346 313 335 326 337 317 318 293 282 331 342 347 353 351 343 337 326 313 287 293 321 331 325 286 311 292 318 321 324 322 317 323 323 322 322 321 321 321 321 319 321 319 317 316 316 320 319 315 314 315 314 315 318 325 334 340 330 339 322 320 319 316 311 307 317 320 329 335 348 354 373 378 379 376 378 380 380 380 376 372 373 370 370 372 373 372 369 367 351 339 304 313 298 298 261 236 229 224 217 213 208 203 199 197 202 200 186 179 196 250 283 276 262 245 230 213 194 190 172 164 164 157 137 150 143 137 135 131 129 125 120 118 115 111 108 104 101 99 96 93 90 89 86 84 83 80 78 77 74 72 71 67 67 66 64 63 63 61 61 61 59 58 58 56 56 56 56 56 57 57 57 58 60 58 58 58 58 59 59 61 61 62 62
193 194 193 211 264 213 196 195 195 195 196 196 196 196 196 196 197 197 196 197 197 201 199 200 202 203 209 214 213 218 234 253 244 221 247 248 274 284 301 299 322 338 350 373 387 392 393 393 392 394 403 420 406 376 360 340 324 303 289 322 334 336 322 315 256 317 325 337 343 339 336 332 314 297 267 282 306 313 327 338 329 320 323 314 291 307 300 310 313 314 310 317 316 316 315 315 315 316 315 315 316 316 313 311 310 310 312 310 323 316 333 357 349 335 325 325 325 321 314 308 302 310 317 325 331 339 348 355 355 362 369 373 374 374 374 373 371 371 370 371 370 370 367 365 362 357 350 349 323 298 281 262 233 222 217 213 208 203 199 195 191 187 188 188 175 173 243 277 269 254 239 228 212 197 188 177 167 162 154 143 148 142 140 133 129 125 124 119 118 114 111 107 102 101 97 94 91 88 87 86 83 81 80 75 75 74 72 71 66 67 66 64 63 61 61 61 59 59 58 58 57 56 56 57 59 57 57 57 60 58 58 57 56 56 56 56 58 57 60 60
193 191 193 214 255 237 209 198 195 197 195 196 196 196 196 197 197 196 196 196 196 198 197 214 210 206 204 206 211 227 238 231 228 219 232 229 287 310 305 318 342 346 357 376 382 388 391 394 396 395 400 403 394 365 346 334 322 291 292 323 332 321 329 307 279 287 320 333 331 318 315 290 261 260 259 320 329 322 321 324 333 327 319 326 319 314 302 311 313 313 311 313 312 310 311 311 311 311 310 312 312 306 306 305 305 309 314 317 327 326 355 349 334 342 337 331 324 320 319 303 305 309 308 310 318 321 327 332 341 354 364 369 369 369 367 368 368 368 369 369 368 366 362 357 350 345 316 302 268 262 264 249 233 220 214 209 203 199 196 191 187 184 181 181 174 175 243 276 264 253 237 226 215 199 185 174 163 155 153 150 147 164 155 139 143 136 129 119 116 112 109 105 102 100 97 92 90 88 85 84 83 80 75 78 75 74 69 67 69 67 66 64 63 61 61 61 61 59 58 58 57 56 57 59 62 59 60 59 58 61 58 57 56 56 56 56 56 56 57 59
190 191 192 193 203 207 199 196 195 198 198 195 195 195 196 196 207 207 196 196 197 197 196 219 216 206 204 210 207 209 212 214 215 237 231 240 258 297 288 318 342 341 344 369 373 382 387 385 394 402 411 396 361 358 339 307 306 318 281 289 282 305 262 272 261 287 294 311 319 287 259 260 256 307 307 319 328 328 333 325 342 330 316 330 314 310 304 304 308 307 310 313 308 306 305 304 305 306 304 304 307 304 302 302 300 300 303 307 329 329 348 328 313 322 319 306 304 316 318 304 301 301 300 301 306 310 312 329 334 347 354 363 365 364 364 365 366 367 368 367 362 362 360 357 355 349 340 318 289 283 259 239 220 214 210 206 200 196 192 188 184 181 177 175 173 172 208 271 265 249 230 218 200 192 181 172 160 153 153 159 169 171 191 188 174 150 133 121 114 109 106 103 101 98 95 92 89 87 85 84 81 76 78 77 72 74 70 69 69 67 66 64 63 63 62 61 61 62 59 59 59 57 56 62 65 70 68 63 62 60 58 58 58 56 55 56 56 56 56 57
189 190 190 191 192 191 192 196 203 199 195 199 200 199 196 195 226 213 197 197 196 198 198 198 201 230 253 232 225 217 214 216 231 245 242 241 254 273 292 311 321 330 331 345 344 365 368 375 386 400 399 372 357 335 343 322 294 290 283 272 270 253 252 289 312 311 307 297 260 240 245 271 299 315 324 326 323 321 322 331 332 333 331 322 314 306 302 304 303 302 304 312 302 300 299 302 301 301 304 297 301 301 302 299 296 296 299 303 309 332 329 316 303 300 301 301 301 300 300 301 301 299 302 306 310 312 326 336 340 351 353 357 358 358 359 359 362 363 366 362 361 362 358 355 350 348 326 299 277 263 253 233 221 213 208 202 198 194 189 186 182 179 175 173 171 169 200 267 263 252 230 215 203 188 178 169 157 153 160 168 186 203 219 214 193 165 131 121 113 109 103 102 99 96 93 91 88 85 84 81 78 79 78 73 75 74 72 70 69 67 66 64 67 67 74 72 64 62 64 61 61 57 56 56 60 73 71 65 66 63 57 57 56 56 55 55 54 56 57 57
188 188 189 190 190 191 194 195 216 221 214 226 213 204 197 199 220 210 202 198 199 199 200 199 199 200 203 243 243 235 223 237 239 252 245 257 261 286 299 302 309 311 324 340 351 357 363 371 378 392 390 370 352 324 304 322 298 252 255 261 247 252 245 262 250 243 246 244 264 294 303 307 306 299 305 308 316 321 326 318 312 315 332 322 309 301 301 305 299 298 298 309 301 299 300 305 301 298 292 292 292 293 297 294 291 292 298 305 313 321 318 316 310 296 295 302 295 295 296 297 297 300 307 310 312 320 327 330 345 351 354 354 356 355 355 355 358 360 368 363 366 361 355 350 344 333 297 277 259 240 230 220 213 209 204 200 197 190 186 183 179 176 173 169 168 166 193 274 266 258 237 210 200 186 173 162 156 156 156 164 184 207 217 212 170 150 127 118 109 105 101 98 96 95 92 89 86 85 82 81 78 75 78 77 70 72 72 70 69 67 66 66 74 87 96 82 67 66 64 62 61 62 57 56 56 59 60 62 60 58 57 57 56 56 55 55 54 56 56 57
187 188 189 189 191 191 196 202 213 241 246 231 234 207 211 207 222 215 206 202 210 200 200 202 201 202 202 214 230 216 212 214 237 241 237 257 294 284 292 277 287 307 320 344 350 361 361 367 366 370 373 363 356 346 285 306 281 248 244 244 247 245 246 256 266 270 253 256 269 283 277 291 290 301 300 310 320 320 310 306 302 308 319 315 307 299 299 311 310 298 305 302 297 300 306 300 295 293 288 289 287 289 290 286 285 286 288 300 320 322 313 302 302 304 318 315 299 295 290 292 293 296 294 297 307 322 331 339 347 349 351 351 351 352 351 352 352 356 360 356 351 348 348 344 334 321 309 277 273 247 230 220 211 207 202 200 192 188 183 181 176 173 170 166 166 165 170 272 257 247 231 210 194 180 177 172 170 161 153 152 162 185 201 190 168 138 117 109 105 102 100 97 94 91 90 87 86 85 82 81 79 78 76 75 69 70 70 70 69 66 66 66 72 72 66 67 66 62 64 67 72 83 68 60 57 59 62 60 58 58 58 57 56 55 55 55 54 56 56 59
187 187 189 190 200 207 215 211 215 226 252 253 258 255 223 213 210 219 228 247 241 227 209 202 203 204 203 204 215 220 220 215 217 220 231 248 237 253 261 284 291 301 321 324 331 336 340 337 328 340 349 346 341 313 304 274 248 242 253 274 295 259 259 277 292 275 254 282 306 299 294 308 300 304 294 310 310 304 299 296 298 305 302 308 304 296 304 307 302 301 295 288 287 291 298 306 298 290 286 288 283 283 284 281 286 295 289 302 315 328 327 328 319 317 313 306 293 290 285 287 286 286 287 287 299 304 323 339 343 346 346 347 347 347 347 347 348 349 350 348 345 343 340 338 331 322 312 303 293 255 238 227 209 203 199 193 189 184 181 177 174 170 167 165 163 164 171 253 253 238 233 208 209 189 183 180 174 178 160 143 144 139 159 158 138 117 110 104 102 99 98 95 93 91 90 87 84 83 82 77 78 76 75 73 72 67 66 69 67 67 66 66 64 64 62 61 61 61 64 64 70 75 72 60 59 57 59 60 60 60 58 58 58 55 55 55 54 56 57 59
188 188 200 197 209 227 245 246 250 247 230 238 254 260 236 216 231 231 255 266 255 238 213 203 204 204 203 204 248 253 249 239 238 239 233 229 239 252 275 294 304 308 309 320 325 313 315 317 320 327 316 325 319 291 245 246 244 242 275 288 304 282 295 277 284 264 277 299 310 307 311 312 307 306 306 307 300 288 292 293 293 292 297 304 295 297 299 292 285 284 285 283 284 290 302 306 294 282 289 288 279 278 279 278 281 287 293 302 320 317 309 299 300 300 308 294 286 279 277 280 279 280 281 280 290 299 317 331 338 342 342 343 343 342 342 343 343 343 343 342 339 337 327 312 304 275 268 251 245 229 235 219 210 204 195 191 187 182 179 175 172 168 165 162 163 173 181 252 241 222 218 218 203 198 192 189 186 186 172 149 134 126 126 134 117 112 105 102 100 97 96 94 91 88 85 84 83 83 79 77 76 75 73 73 72 70 66 67 67 66 64 62 62 61 61 59 59 59 64 65 70 64 60 62 59 59 59 60 61 60 61 60 58 58 55 55 54 54 57 59
190 195 206 231 231 231 228 247 261 271 279 267 270 268 240 240 256 258 252 236 239 249 218 204 204 206 204 205 237 267 271 264 257 254 245 244 247 262 276 299 321 318 293 297 295 282 284 301 292 286 286 288 260 232 266 295 303 292 296 311 315 309 303 286 294 307 311 304 310 312 315 307 299 289 298 297 285 285 293 291 293 294 297 303 301 291 284 286 280 279 278 277 280 287 294 299 302 298 298 288 276 273 274 273 272 272 283 299 316 319 311 295 287 279 277 280 280 275 271 272 272 270 273 276 282 291 297 319 330 333 337 338 338 338 338 339 338 338 339 338 336 333 321 312 308 289 279 279 267 262 253 215 202 196 191 189 183 179 175 173 168 166 163 160 158 178 189 229 224 208 206 198 194 198 207 217 205 204 192 157 139 125 119 113 110 106 103 101 98 97 95 93 89 87 85 82 83 80 77 76 76 74 71 72 72 69 69 64 62 62 62 62 61 61 59 59 57 57 57 57 59 60 60 60 63 62 62 65 66 65 63 61 60 58 56 55 54 54 56 59
188 223 227 239 219 209 225 216 236 249 245 259 271 281 283 285 279 270 249 238 220 215 206 205 206 207 204 205 233 255 259 275 285 284 291 293 268 261 279 307 286 292 280 279 257 261 275 272 260 253 240 231 276 295 301 320 312 321 326 326 318 316 310 299 315 323 319 315 312 302 303 295 284 274 278 275 284 287 293 293 293 298 298 298 290 280 277 276 274 273 273 273 275 282 284 286 290 290 292 284 274 269 271 271 273 269 271 283 295 291 314 303 307 277 278 274 277 269 267 265 265 264 268 273 276 278 271 278 290 308 300 299 314 333 334 335 334 334 333 333 331 327 324 315 303 298 282 295 282 243 226 211 202 194 190 185 181 177 173 170 166 163 161 156 155 174 185 216 203 185 187 181 181 186 207 216 211 203 193 155 137 124 116 110 107 104 102 99 98 96 94 90 88 86 85 84 80 78 77 77 74 71 70 70 68 69 67 66 64 61 59 59 59 59 58 58 57 57 56 56 57 59 60 62 65 71 71 79 84 69 64 63 63 58 56 55 53 54 56 59
187 189 197 199 196 204 217 228 243 256 234 255 277 283 288 279 264 256 232 227 206 206 205 206 207 209 206 206 208 219 231 236 262 268 283 249 289 274 278 280 281 262 268 262 237 229 226 233 272 279 294 306 304 315 321 298 290 309 309 307 311 313 322 319 325 317 306 300 298 287 272 286 277 266 266 284 288 293 296 288 283 282 286 290 277 284 281 271 267 268 269 268 269 272 274 278 278 276 274 276 269 265 265 275 273 269 270 271 285 283 279 276 278 286 280 274 268 263 263 260 262 262 265 268 269 271 271 272 275 295 290 274 286 291 293 320 330 329 329 328 327 325 314 311 311 312 309 298 271 244 233 222 209 200 192 184 179 176 171 167 164 161 157 156 158 163 180 177 194 174 170 171 169 174 187 195 193 187 183 141 130 119 112 109 105 102 102 99 95 94 91 89 88 85 82 81 80 78 77 76 73 71 70 68 67 67 65 66 64 62 59 58 59 58 58 57 56 56 54 53 56 57 57 62 71 84 87 87 77 76 71 66 75 69 58 53 53 53 54 57
188 190 197 210 219 216 224 238 250 277 281 286 275 252 265 279 275 263 247 235 206 206 216 212 221 215 210 208 209 212 215 234 234 227 215 216 235 243 245 222 259 248 221 222 222 222 239 262 284 288 293 296 278 286 275 290 263 275 280 292 298 299 310 311 317 309 288 264 276 250 253 259 256 265 282 284 283 288 287 280 278 273 274 276 270 267 268 267 259 263 265 265 266 266 263 263 263 264 264 268 267 264 266 275 287 269 276 300 303 301 302 297 279 270 268 268 269 261 260 257 257 257 259 264 268 278 272 286 287 300 310 322 326 319 307 326 327 326 326 323 319 311 296 287 278 261 279 267 250 222 203 200 197 206 190 184 178 174 170 167 165 168 186 169 174 174 175 174 180 172 158 162 158 153 162 166 165 147 147 130 121 115 111 106 103 101 98 96 93 92 90 87 86 83 84 81 80 78 78 74 73 71 70 68 67 65 64 64 62 62 61 58 56 56 56 56 56 54 53 53 52 54 57 62 70 79 85 107 93 80 71 85 83 72 55 53 51 51 53 54
187 188 196 211 235 248 251 221 217 221 237 260 242 232 243 267 280 258 242 231 228 227 221 235 249 228 218 221 211 215 229 225 219 213 215 218 219 220 220 223 222 222 219 223 232 236 236 238 258 257 251 221 250 254 256 265 249 257 279 292 280 276 282 293 297 296 274 256 241 267 274 280 278 275 271 272 272 278 275 268 261 267 267 267 258 256 258 255 257 261 261 260 259 259 259 259 257 260 270 273 269 262 268 277 295 276 295 299 294 279 280 268 258 255 254 254 259 257 255 255 252 253 256 260 266 270 283 289 287 291 302 316 322 323 323 322 324 323 321 320 312 309 296 291 262 243 226 216 215 225 212 212 212 206 189 184 178 173 169 168 184 218 241 252 227 206 194 176 165 165 158 153 152 147 145 149 137 138 131 120 115 111 108 104 102 99 97 96 93 91 90 87 84 83 82 81 78 78 77 74 71 70 68 67 65 65 64 62 61 61 59 59 56 56 56 54 54 54 53 51 52 54 56 62 71 82 88 112 93 75 63 66 64 56 53 50 50 51 51 53
187 188 201 210 217 227 230 216 199 198 203 209 245 233 251 291 294 294 257 246 248 261 250 263 262 246 238 230 219 213 211 213 214 216 217 218 222 223 225 221 225 238 244 249 244 248 244 236 232 220 229 221 222 221 220 229 245 251 248 249 244 248 241 240 275 259 248 216 251 252 258 263 269 230 230 242 255 256 251 231 231 231 246 237 242 235 235 247 257 257 256 255 255 256 256 253 253 267 277 272 265 275 281 280 282 283 287 288 280 259 254 253 251 252 256 256 250 250 250 248 248 248 251 256 261 272 287 300 308 306 299 314 317 318 317 318 319 318 317 314 310 304 292 278 255 253 232 228 237 232 221 223 219 197 187 181 178 176 170 166 203 251 279 298 282 256 214 174 163 152 151 146 150 145 144 140 136 128 123 118 115 113 108 104 100 98 97 94 92 91 88 85 84 85 82 79 79 78 75 72 71 70 68 67 65 64 62 62 61 59 59 58 56 56 54 54 53 53 51 51 52 59 62 71 76 85 77 79 76 69 63 55 53 52 48 48 54 57 57 54
188 189 189 189 191 198 205 195 194 196 203 218 233 254 257 274 302 289 269 263 257 254 282 272 256 251 241 235 233 231 221 216 215 217 220 221 222 222 227 237 222 224 242 269 270 249 260 251 244 238 241 239 248 279 245 239 228 216 228 237 216 217 219 221 223 215 213 218 216 249 235 235 238 263 254 256 252 222 228 228 233 250 235 250 252 255 255 250 248 247 245 250 252 250 249 250 258 264 261 257 259 268 271 265 262 266 256 263 250 249 265 282 269 264 262 260 249 246 245 244 244 246 246 248 258 277 286 297 307 303 308 310 313 313 314 314 315 313 312 310 303 298 287 280 263 258 250 252 246 237 230 216 202 187 183 179 174 170 168 165 182 233 274 297 298 270 218 185 159 144 143 142 143 148 145 140 133 127 122 117 115 110 104 99 100 97 97 93 90 88 86 84 84 83 82 81 78 77 74 72 71 70 70 67 64 64 62 61 61 59 58 58 54 54 53 53 53 51 51 49 49 52 60 76 78 66 62 76 74 71 61 49 49 47 47 47 57 57 54 54
187 188 189 190 191 191 192 193 194 195 204 198 233 227 244 269 273 275 260 243 239 227 240 264 260 255 241 253 237 235 233 227 219 217 225 234 243 249 256 253 249 224 225 234 269 288 277 257 257 258 262 264 280 283 279 265 249 230 225 214 213 222 239 239 242 275 259 228 240 254 259 266 271 267 261 263 265 269 265 262 258 258 257 255 253 252 252 260 249 249 246 244 247 247 246 246 245 246 247 245 247 249 258 277 279 274 269 254 273 279 283 290 273 262 254 250 246 244 242 240 240 241 243 246 263 274 290 303 307 297 297 299 305 309 308 308 306 307 305 303 296 288 279 276 271 252 300 293 252 249 210 199 192 186 182 177 173 169 166 163 164 183 203 240 251 229 183 165 150 143 138 139 142 142 142 138 132 123 120 117 110 108 103 99 98 96 93 90 88 87 85 84 86 85 82 79 78 75 72 72 71 68 68 67 64 62 62 61 59 58 58 56 54 54 53 53 51 51 49 49 49 48 54 51 52 55 68 77 69 58 49 47 47 47 47 48 50 53 53 53
187 189 189 190 190 191 191 193 193 194 194 196 199 204 228 235 230 259 260 233 223 226 215 246 256 256 243 227 232 242 235 242 239 237 240 230 236 233 238 250 258 236 228 225 226 266 284 278 272 271 265 269 278 299 282 269 253 240 257 267 264 283 268 244 258 279 275 259 224 232 238 233 241 247 259 263 266 269 271 270 272 266 260 263 263 253 259 258 257 249 245 243 240 244 243 242 243 242 241 240 240 242 246 257 265 273 276 260 276 283 282 274 262 264 249 245 242 241 239 237 236 237 239 245 252 271 288 295 302 297 292 290 297 301 300 298 297 299 303 300 292 287 291 289 290 293 299 289 258 228 210 199 196 193 184 177 173 169 165 161 157 157 153 151 171 167 153 149 138 132 131 126 128 127 132 130 127 122 117 114 106 105 101 98 97 94 90 89 91 90 85 84 86 81 79 76 76 73 72 71 69 68 66 65 64 62 61 61 59 57 56 56 54 53 53 53 51 51 49 49 49 48 48 49 54 70 68 61 54 49 47 45 45 45 48 58 54 51 50 49
188 188 189 189 190 191 192 192 193 194 195 195 197 197 200 201 228 229 242 227 218 213 210 235 237 242 234 229 245 226 235 248 243 242 247 245 238 244 247 250 251 250 243 230 247 243 232 271 267 246 255 256 262 280 254 258 251 293 279 291 300 283 285 275 263 270 274 269 276 256 259 253 246 234 256 263 264 265 270 268 269 269 265 265 265 261 263 261 255 246 240 241 240 239 240 240 238 237 240 240 237 236 241 242 247 246 261 271 277 277 271 257 251 248 244 239 238 237 236 235 233 233 234 237 251 265 280 285 289 287 286 284 295 296 292 293 296 300 300 299 300 296 294 293 297 294 295 274 248 219 213 201 197 194 186 181 173 168 163 159 154 152 150 148 145 142 134 131 128 131 126 122 120 122 119 120 117 116 113 108 106 102 101 99 94 91 90 89 90 86 83 85 84 80 80 77 78 75 72 69 68 66 65 63 62 62 61 59 57 57 56 54 54 53 51 51 51 51 49 49 48 48 46 46 47 60 60 54 50 47 45 45 45 52 56 54 50 48 46 48
187 188 189 190 190 191 191 193 193 194 195 196 197 198 199 199 203 201 203 206 204 206 208 208 218 219 219 219 222 225 231 235 237 243 257 250 253 244 249 251 256 249 253 257 248 253 238 242 247 247 236 254 255 245 244 287 258 278 290 296 297 292 290 283 281 273 279 278 277 273 266 266 257 230 243 256 258 260 268 267 264 265 266 263 259 258 261 254 250 242 238 236 236 236 237 235 234 239 246 248 244 238 244 244 243 241 237 250 263 271 269 265 259 247 237 237 236 236 234 233 230 229 232 233 242 250 261 273 273 279 291 294 295 295 292 291 296 297 297 297 297 296 294 289 281 263 273 259 232 218 224 216 201 195 186 181 182 173 164 160 159 151 147 145 141 140 134 130 127 124 121 118 117 117 115 114 109 107 107 105 105 103 98 94 92 90 92 91 90 84 85 85 84 81 79 76 73 72 70 69 68 66 65 63 62 60 59 59 57 56 56 54 53 53 51 51 49 49 49 49 48 48 46 48 46 46 47 46 46 44 44 44 44 52 51 50 47 45 45 48
196 190 189 191 191 192 192 194 194 194 196 226 228 231 220 200 200 202 203 205 205 206 209 209 210 219 217 222 223 221 229 231 234 243 276 281 265 259 261 253 276 287 265 263 259 257 247 237 246 261 264 285 308 310 314 310 296 287 271 274 277 288 291 292 289 282 275 279 279 276 271 267 264 256 240 244 254 260 264 262 257 254 257 259 265 267 268 257 246 242 236 236 237 233 232 231 236 240 248 243 240 238 241 246 247 248 236 236 232 229 235 238 231 232 231 235 236 234 232 234 226 226 229 233 237 243 252 256 259 267 279 268 279 272 285 292 294 295 297 297 295 294 292 287 280 272 249 244 240 238 230 218 212 206 204 200 189 181 170 159 153 149 146 142 138 135 132 127 124 121 119 116 114 111 109 110 108 104 102 105 102 97 94 93 91 91 90 86 88 87 86 85 79 81 80 74 73 72 70 69 68 66 65 63 62 60 61 59 57 56 54 54 53 53 51 49 49 49 49 49 48 46 46 46 46 46 46 46 44 44 44 44 45 47 47 44 43 43 45 48
196 192 198 203 215 214 200 194 196 198 222 236 244 231 226 214 203 203 204 204 218 215 221 216 225 222 213 215 216 223 229 235 247 263 298 301 289 282 286 295 294 291 276 276 279 276 273 268 257 231 243 261 304 320 318 312 307 303 292 299 279 276 276 282 287 291 281 281 279 277 279 267 260 253 240 229 244 260 255 252 246 244 249 246 249 249 245 250 252 243 237 238 239 232 234 228 231 236 236 245 239 238 242 244 248 259 246 236 236 231 226 226 226 225 228 232 233 235 234 231 225 224 225 225 229 233 239 241 248 264 257 256 264 277 287 291 292 293 297 296 296 291 289 286 281 276 270 254 240 224 218 215 209 209 214 207 192 178 172 160 155 150 144 139 136 132 130 126 122 119 116 114 111 108 106 106 104 103 104 103 98 96 94 93 90 90 87 88 87 86 85 82 81 80 80 74 76 72 70 67 66 65 63 62 60 62 61 59 56 56 54 53 53 51 51 49 49 48 49 48 48 48 48 47 47 46 46 46 44 44 44 45 47 45 44 44 43 43 43 48
205 204 207 220 232 232 223 221 199 202 202 215 219 241 235 234 245 222 206 206 206 233 246 235 226 224 221 216 218 218 219 233 247 273 294 310 316 311 304 303 302 292 294 293 294 292 286 276 260 277 267 267 262 280 292 311 316 310 303 303 295 293 291 284 281 288 287 280 281 285 276 268 261 255 245 234 224 241 245 243 241 239 238 238 236 240 237 240 248 256 247 248 236 238 228 229 234 235 239 242 251 248 239 235 239 241 253 253 239 245 238 243 227 223 222 230 229 232 231 224 223 221 223 221 222 226 227 231 235 242 250 253 265 277 282 288 290 292 296 301 295 296 293 285 277 272 262 252 239 226 219 230 220 218 225 200 189 188 170 161 155 147 142 138 134 130 126 123 121 118 115 111 108 106 105 101 102 103 99 96 96 96 93 93 90 89 87 88 87 84 83 82 81 80 74 77 74 70 69 67 66 65 63 62 63 62 62 57 56 54 54 53 53 51 49 49 49 49 48 46 48 48 48 47 46 46 46 44 44 42 44 42 42 42 42 42 42 42 42 43
213 214 213 230 242 256 248 252 220 212 220 214 223 222 229 242 240 216 206 207 207 234 252 240 235 241 238 238 230 220 219 221 242 255 280 311 312 311 317 311 310 303 304 308 301 299 293 297 324 308 304 301 287 264 269 289 287 290 302 301 302 299 291 292 289 285 288 287 282 278 267 262 256 252 246 235 229 224 230 235 236 236 237 248 241 251 237 237 237 250 245 236 232 230 229 232 238 238 244 244 238 232 240 233 227 225 236 243 247 248 246 249 236 220 222 226 224 224 224 223 220 217 217 219 219 220 223 223 234 245 253 262 266 273 281 284 288 292 297 301 296 291 287 282 276 268 265 252 248 235 234 232 223 213 206 195 189 194 172 160 153 146 150 142 134 130 126 122 119 116 112 109 107 104 102 100 99 97 96 94 92 91 91 90 89 88 87 86 84 82 81 80 79 80 77 73 71 70 69 67 66 66 66 65 63 60 59 57 56 54 54 53 51 51 49 49 49 51 49 48 48 48 48 46 46 46 46 46 44 44 42 42 42 45 45 42 42 45 45 45
202 217 227 229 248 283 297 258 242 234 224 223 239 244 249 253 245 228 219 211 209 211 234 255 267 261 266 256 242 241 224 222 231 238 256 284 295 315 325 318 316 321 315 315 311 307 323 321 334 335 327 328 304 286 279 273 263 272 294 287 301 305 298 296 297 294 295 290 284 275 266 260 252 247 241 233 234 240 238 229 233 236 234 236 237 242 244 249 244 237 238 231 223 224 227 231 231 228 225 231 220 222 228 227 221 221 228 243 251 239 231 225 223 220 219 220 218 217 222 218 216 215 216 218 218 222 225 226 230 238 247 258 265 268 277 280 283 285 292 294 290 287 282 279 275 271 267 263 261 252 241 246 230 218 205 198 187 179 175 162 159 154 149 139 134 127 126 120 117 115 110 107 104 102 99 98 98 97 94 93 92 91 89 90 87 86 85 83 82 81 81 80 79 78 74 73 71 70 70 69 66 63 66 65 62 59 57 56 56 54 53 53 51 51 49 49 48 49 49 48 48 48 46 46 46 46 46 44 44 44 44 44 44 44 44 44 45 45 45 45
206 194 213 238 250 261 281 280 268 262 254 246 267 290 294 271 246 239 239 227 235 217 239 263 251 246 277 261 268 254 251 247 239 224 229 235 251 260 259 292 312 320 328 316 318 340 342 329 334 342 340 331 304 307 312 295 295 272 267 268 287 283 279 283 289 292 297 292 286 279 267 259 253 247 239 234 240 241 240 234 234 232 230 229 233 236 238 240 237 228 224 219 218 218 233 217 223 221 217 216 215 217 226 222 218 215 219 234 248 241 242 231 216 215 221 216 223 219 221 213 214 215 215 217 220 222 223 228 231 247 253 258 262 269 273 276 279 281 281 284 282 281 277 275 274 271 268 265 255 247 231 229 216 214 196 195 185 172 169 159 152 147 144 140 135 130 126 121 117 113 110 106 103 99 97 97 96 94 92 91 91 90 89 88 86 85 84 84 82 81 80 79 78 73 72 74 73 72 70 69 68 66 66 62 62 59 57 56 56 54 53 51 51 51 49 49 49 48 49 48 48 46 46 46 46 46 44 44 44 44 44 44 44 44 44 44 43 43 43 45
193 201 217 231 254 236 270 267 285 271 258 273 303 329 325 276 296 265 250 229 237 230 231 236 244 249 263 273 281 262 268 259 263 268 245 239 227 229 230 245 259 320 298 296 306 327 319 320 333 331 331 337 325 321 321 308 297 285 291 279 264 263 276 282 278 282 283 280 274 275 264 257 252 244 240 233 236 243 238 231 227 226 225 226 231 235 233 229 225 223 221 217 215 214 214 215 217 214 213 213 212 217 215 214 213 213 213 213 220 229 228 231 219 212 216 212 218 216 212 211 212 213 215 216 220 224 225 228 234 246 255 258 259 266 271 274 276 279 280 280 278 277 274 272 270 269 266 259 250 242 231 219 223 208 199 195 180 169 165 159 151 147 143 140 133 129 124 120 116 112 109 104 101 98 96 95 93 94 93 91 90 90 89 87 86 85 84 83 80 79 80 79 75 73 75 74 73 72 69 67 68 66 66 65 63 59 57 56 56 54 53 53 53 51 49 49 49 49 48 48 48 46 46 46 46 46 44 44 44 44 44 44 44 44 44 44 43 43 43 45
193 195 197 209 217 236 241 239 255 282 302 321 323 330 310 318 287 271 251 243 248 227 244 249 241 260 257 291 301 300 292 293 297 285 283 268 253 249 229 229 231 242 251 249 282 283 269 273 303 311 331 335 334 331 332 316 306 299 309 296 278 279 263 263 264 255 265 264 265 276 269 259 254 247 242 233 236 243 239 235 228 227 228 225 227 226 226 221 216 223 222 214 213 213 212 212 211 212 211 212 211 210 212 214 214 211 210 210 212 223 214 219 212 211 214 211 223 214 209 210 212 212 212 218 217 222 229 235 238 246 249 251 258 264 269 273 275 279 282 283 281 276 274 271 268 265 261 254 250 245 234 254 251 236 216 191 183 170 163 160 153 148 143 137 133 128 123 119 114 111 107 104 101 96 94 94 93 97 92 90 89 88 87 87 86 83 82 81 80 79 78 76 75 75 74 73 71 70 69 69 68 66 65 63 62 60 59 57 56 54 54 53 51 51 51 49 49 48 48 48 48 46 46 46 46 44 44 44 44 44 44 44 44 44 44 44 43 43 43 43
194 196 199 200 203 215 229 240 266 275 310 329 313 281 266 271 291 298 268 259 252 237 242 267 314 308 297 312 317 327 328 319 334 324 306 297 302 283 265 261 260 261 273 261 244 243 247 266 292 326 313 308 300 323 316 307 320 320 313 305 293 289 276 264 258 261 263 263 265 270 270 263 254 248 241 234 238 242 249 247 231 228 234 227 228 230 217 215 214 217 216 212 210 211 211 210 209 211 212 209 209 213 216 230 219 212 209 209 208 211 211 208 209 210 215 220 217 215 208 209 210 212 220 230 229 224 232 235 239 248 244 252 256 263 267 270 276 282 286 284 282 281 276 270 266 262 255 254 251 263 264 261 257 242 221 202 188 173 170 164 154 149 144 139 133 128 122 118 114 110 107 103 100 98 96 94 93 91 90 90 89 88 86 85 84 83 82 81 80 79 77 76 76 75 74 72 71 70 69 67 68 66 65 63 62 60 59 57 56 54 53 53 53 51 51 49 49 48 48 48 46 46 46 46 44 44 44 44 44 44 44 44 44 42 44 44 42 43 43 43
195 199 201 211 214 213 249 261 263 328 318 285 275 270 255 278 283 273 266 262 261 251 259 271 291 290 300 295 282 293 301 284 310 333 329 325 330 309 280 288 300 298 299 301 274 258 277 235 246 264 278 265 298 297 289 299 307 301 293 294 292 286 279 270 277 274 269 270 271 265 265 258 251 248 247 244 234 235 235 241 233 230 236 231 232 233 222 217 211 211 210 209 209 209 209 208 209 210 207 207 216 229 232 233 215 211 206 206 210 208 206 206 206 211 222 216 217 215 209 206 206 210 218 229 239 243 231 238 245 252 253 257 257 261 264 267 271 277 283 281 280 276 273 269 264 260 257 257 267 276 278 272 262 251 229 205 188 177 173 168 161 154 148 140 134 128 124 120 117 111 107 104 101 99 97 95 93 91 90 90 89 90 86 85 84 83 81 80 80 79 77 77 76 76 75 72 71 70 70 69 68 66 65 66 63 60 59 57 56 54 54 53 53 51 51 49 49 48 48 48 46 46 46 46 44 44 44 44 44 44 44 44 44 44 44 44 43 43 43 43
194 199 209 216 229 264 319 334 326 306 304 298 267 252 255 247 268 258 254 256 248 244 240 230 243 255 273 261 262 253 253 263 271 285 289 305 322 328 326 324 324 334 321 305 302 269 281 278 251 235 242 251 272 263 261 278 290 286 273 267 274 272 268 282 279 284 287 276 264 258 251 251 246 248 252 247 246 241 244 244 242 240 238 239 237 229 228 219 212 209 208 208 207 207 207 208 208 207 206 208 210 216 210 219 225 206 204 205 205 213 214 205 205 216 219 219 215 213 210 208 204 203 206 214 213 224 229 240 246 251 256 253 256 258 261 264 268 271 272 273 272 270 268 264 261 260 256 263 272 287 285 282 263 261 250 228 203 186 183 171 163 163 168 155 133 130 130 125 115 115 107 105 103 100 98 96 96 92 90 90 89 88 86 85 84 82 81 80 79 76 77 76 76 76 75 74 73 72 70 70 68 68 69 68 68 60 60 59 56 54 54 53 53 51 51 49 49 48 48 46 46 46 46 46 44 44 44 44 44 44 44 44 44 44 44 42 43 42 43 43
193 203 214 224 232 243 282 312 317 289 270 271 264 256 242 237 251 241 254 252 248 258 247 235 234 241 249 241 242 242 241 243 247 251 262 276 297 317 311 299 308 316 329 305 324 305 297 276 284 289 257 249 245 242 247 246 267 270 258 261 270 257 262 255 275 282 276 269 253 249 246 242 242 254 248 241 237 234 236 235 233 242 230 223 226 215 212 212 216 210 207 206 206 206 205 206 205 204 203 203 203 203 213 231 222 206 210 216 211 209 203 203 204 215 217 217 216 202 204 202 201 201 203 207 213 227 241 238 248 252 255 258 255 254 256 259 262 265 268 265 266 265 261 262 262 260 262 267 275 283 292 279 261 256 247 231 205 204 197 196 198 197 181 165 137 132 134 138 128 119 112 108 105 103 101 99 96 94 92 91 89 88 86 85 83 83 82 80 77 76 75 76 76 75 75 74 73 72 72 70 71 71 73 81 81 65 60 59 56 54 54 53 53 53 51 49 49 48 48 48 46 46 46 46 44 44 44 44 44 44 44 44 44 44 42 44 43 43 43 43
194 208 225 235 242 251 284 307 318 276 263 252 242 238 230 234 232 244 252 237 243 246 243 235 227 236 234 226 231 231 244 247 249 247 249 268 271 290 287 288 299 315 337 336 328 318 309 304 312 290 292 278 266 277 277 256 241 243 239 251 251 252 255 266 276 270 258 264 250 244 239 239 245 245 243 236 234 226 226 225 231 231 220 219 221 218 209 209 212 210 206 204 203 202 204 204 203 204 203 202 202 206 214 222 223 221 216 215 203 201 205 204 211 215 215 215 202 201 201 201 200 200 202 207 213 223 237 248 254 259 257 258 254 256 253 255 257 259 259 260 260 258 259 260 261 263 266 270 271 268 276 271 262 251 241 223 204 202 210 217 217 204 185 177 152 136 137 136 131 118 113 110 107 105 104 100 100 95 93 91 89 88 86 85 84 82 81 80 79 76 77 77 76 75 74 72 71 70 69 70 74 76 82 98 87 65 60 59 56 56 54 54 53 53 51 51 49 48 48 48 46 46 46 46 44 46 44 44 44 44 44 44 44 44 44 44 43 43 43 43
205 229 245 255 264 281 312 328 333 311 300 283 273 254 243 228 222 226 242 250 230 227 225 231 229 222 226 232 238 248 264 276 273 257 269 257 254 259 265 281 311 327 341 329 331 325 329 329 332 327 316 307 281 289 299 275 262 275 252 239 236 245 260 260 264 256 248 255 245 239 234 238 237 236 239 234 226 224 223 235 235 222 215 212 211 213 209 206 214 207 204 202 200 203 202 202 204 204 203 204 203 202 201 208 224 220 211 204 215 218 201 203 212 209 211 213 200 200 200 200 201 200 202 208 214 229 241 248 256 263 260 260 258 253 250 251 252 254 255 257 257 258 259 260 262 263 264 271 265 265 272 256 250 235 226 221 201 215 230 249 241 222 197 176 160 149 147 145 134 132 117 114 114 109 105 103 104 96 101 91 89 88 87 85 84 83 82 81 79 78 77 77 78 78 77 72 73 72 70 72 75 69 69 74 68 64 60 59 57 57 56 54 54 54 56 51 49 49 48 48 48 46 46 46 46 46 44 44 44 44 44 44 44 44 44 44 43 43 43 43
213 241 253 286 320 335 345 339 328 309 292 276 271 261 250 243 233 226 231 247 235 228 217 228 220 227 236 238 256 277 304 303 304 298 302 288 264 254 263 277 299 305 309 318 306 308 308 322 324 329 328 317 296 302 310 297 288 289 280 261 240 245 234 235 236 239 232 239 230 223 227 228 226 224 227 225 224 223 225 231 239 229 217 215 209 204 197 204 205 203 199 199 202 202 202 202 202 202 200 199 200 199 199 201 206 215 221 223 220 216 201 199 209 210 204 202 199 198 198 198 199 199 205 210 223 233 240 248 254 259 260 260 259 252 248 249 254 257 256 256 258 259 263 262 266 268 268 271 262 261 255 251 247 236 229 219 212 222 238 240 239 223 195 182 163 160 149 150 147 136 129 123 117 111 106 103 105 108 103 95 93 89 89 86 86 83 82 81 80 79 78 77 78 78 77 76 73 72 70 70 69 68 66 66 65 62 62 61 57 56 56 54 54 53 53 51 49 49 49 48 48 48 46 46 46 46 44 44 44 44 44 44 44 44 44 44 43 43 45 45
232 249 270 297 330 339 339 332 333 312 296 281 270 258 250 244 239 229 224 241 238 227 217 219 232 231 243 261 266 279 308 314 320 338 335 301 277 281 273 263 266 271 275 281 276 287 294 297 310 319 328 319 310 309 300 302 299 294 289 264 253 256 260 258 256 244 223 237 240 231 234 232 228 230 228 233 227 229 235 234 236 227 228 224 216 207 204 199 203 199 199 198 197 196 196 200 200 201 201 201 200 199 198 198 198 200 212 223 205 198 203 203 208 201 200 200 199 197 197 197 198 200 202 209 221 230 238 246 250 253 257 256 254 251 242 247 253 256 256 258 260 262 266 264 268 268 269 270 262 261 254 248 241 231 228 225 222 225 221 230 233 212 186 177 167 161 155 151 147 140 130 124 126 111 114 117 111 108 104 97 93 91 89 86 86 83 82 81 80 79 78 77 76 75 75 76 73 72 70 70 69 66 66 65 65 64 62 61 61 57 56 56 54 53 53 53 51 49 49 48 48 48 48 46 46 46 44 44 44 44 44 44 44 44 44 44 45 45 45 45
261 288 305 332 329 313 291 282 295 324 315 296 282 265 253 248 235 233 225 228 235 215 226 248 258 252 254 266 268 284 294 301 301 324 318 286 287 288 281 259 276 310 309 309 303 293 314 310 314 326 323 311 303 287 277 296 294 277 277 272 268 272 272 267 265 258 249 251 247 243 243 242 237 238 233 238 243 236 238 239 225 218 213 212 209 209 202 195 192 196 195 194 198 199 199 198 198 198 198 198 197 200 210 215 214 202 199 223 206 198 199 198 204 206 201 198 198 197 195 196 197 198 201 205 215 227 232 234 242 249 251 250 243 241 242 244 244 253 258 261 261 261 265 267 271 275 273 272 261 254 249 243 239 234 232 229 231 225 214 211 206 194 185 178 171 162 160 155 146 138 138 134 131 126 123 117 107 105 100 98 95 92 89 87 86 85 82 81 80 79 78 77 78 76 77 77 74 75 72 69 68 66 66 65 65 64 62 62 59 57 56 56 54 53 53 53 51 49 49 48 48 48 48 46 46 46 46 44 44 44 46 45 44 44 45 45 45 47 46 48
290 325 333 313 296 292 280 261 278 288 280 269 266 262 266 247 236 225 224 214 212 213 230 241 253 243 242 243 250 266 280 275 262 298 322 312 304 293 293 276 266 290 294 307 318 320 329 330 326 328 311 302 292 287 257 281 292 284 274 252 256 256 269 264 248 253 253 242 241 243 245 243 242 248 243 243 244 233 223 221 222 219 209 206 207 203 197 198 188 190 196 199 199 198 198 204 209 210 206 200 196 197 202 215 223 210 205 224 218 207 209 196 202 205 203 197 204 194 194 195 195 197 201 205 211 217 223 231 238 247 249 247 245 240 238 240 243 252 255 258 261 263 265 269 274 278 278 270 264 260 251 247 245 243 241 237 232 221 218 211 207 202 189 178 176 167 164 159 151 145 141 134 131 123 116 113 114 106 106 98 97 92 89 88 87 85 84 81 80 79 78 77 76 78 80 79 74 75 70 69 68 68 65 63 64 64 62 59 59 58 58 56 54 53 53 53 51 49 49 49 49 48 48 46 46 46 46 44 46 46 46 44 44 44 45 47 47 48 50 53
287 303 313 298 285 274 253 246 250 251 251 248 242 268 258 250 237 230 221 212 210 218 218 237 234 231 235 240 253 253 274 264 256 271 289 287 279 297 295 294 291 299 302 294 306 315 323 324 325 328 305 293 274 257 249 282 287 280 273 249 240 258 251 249 237 241 239 244 241 233 239 227 233 240 246 239 245 234 221 213 211 211 210 203 201 204 202 197 183 189 198 198 197 197 196 198 203 197 203 210 205 200 204 210 218 212 208 203 212 195 194 197 194 201 201 203 202 194 193 193 195 197 199 203 207 212 218 228 235 242 241 244 246 243 235 236 246 252 253 258 262 265 268 272 274 278 284 269 270 266 258 256 248 246 241 237 230 223 217 210 220 208 177 187 177 171 165 159 155 145 140 133 127 123 121 120 118 113 107 104 96 100 98 92 87 86 84 83 82 80 78 77 76 78 77 76 75 73 72 69 68 66 65 65 64 62 59 59 59 58 58 56 54 53 53 53 53 51 51 49 49 48 48 48 46 46 46 46 46 46 46 44 44 45 45 47 48 50 51 57
302 335 332 299 270 250 245 237 228 227 234 228 227 222 265 249 228 213 209 209 210 223 230 230 218 219 236 228 239 240 247 252 248 262 256 256 255 263 266 272 280 292 312 323 327 322 315 307 311 312 304 290 283 262 250 261 277 270 247 256 236 232 235 230 232 242 248 243 234 218 222 229 231 235 233 226 226 222 221 212 203 206 206 197 201 198 200 194 175 192 197 197 195 195 196 195 195 196 194 195 201 193 194 194 196 193 193 196 198 199 199 195 199 196 201 199 199 197 192 194 193 194 196 198 203 208 211 218 226 235 242 239 236 231 233 234 245 246 252 259 263 269 270 274 278 282 287 284 270 270 266 260 258 253 244 237 229 228 233 220 195 180 200 194 190 181 175 174 157 149 142 137 131 130 131 125 121 115 107 103 98 94 92 90 87 86 88 85 81 81 79 79 76 77 76 77 73 72 71 69 68 66 67 65 64 62 62 61 59 58 58 58 56 54 54 53 53 51 51 49 49 49 48 48 48 46 46 46 46 46 46 44 46 45 47 48 50 53 56 60
315 331 318 317 314 307 274 272 251 225 221 218 209 211 222 234 216 214 207 209 210 212 213 214 221 228 239 224 232 233 229 236 240 245 246 245 253 256 257 262 273 280 294 304 308 310 298 296 280 303 308 293 285 264 247 237 264 256 248 230 226 240 241 242 246 244 241 224 212 223 233 237 237 241 235 226 216 208 212 209 199 202 194 199 201 176 193 172 173 190 195 192 192 188 187 189 191 192 193 195 194 195 192 196 197 197 195 195 193 194 193 195 196 196 195 195 192 191 192 190 192 191 193 196 202 209 214 220 229 233 238 224 213 222 230 237 242 246 252 257 262 266 270 275 283 291 291 292 282 281 272 268 264 256 248 240 236 235 223 206 191 186 201 204 195 187 187 172 162 153 148 145 140 137 132 129 119 114 110 104 99 96 93 91 89 88 89 85 87 83 80 79 78 77 76 79 76 72 71 69 68 68 67 65 64 64 67 62 59 59 58 58 56 56 54 54 53 53 51 51 49 49 49 49 48 48 46 46 46 46 46 44 46 47 49 50 55 62 58 62
294 296 279 284 299 298 269 263 256 234 225 220 214 209 206 223 219 206 207 212 213 225 218 229 226 233 246 250 245 248 242 244 239 241 245 254 255 267 265 276 277 283 293 292 284 282 273 261 265 285 288 279 272 263 255 232 243 236 223 229 236 225 234 240 247 232 221 223 232 226 229 233 227 232 226 221 221 212 203 204 189 196 198 187 180 181 173 186 194 194 191 180 170 171 173 173 175 178 178 179 185 184 185 187 187 189 190 190 191 192 197 195 195 195 194 192 190 191 190 190 194 193 191 193 199 206 217 229 241 226 199 202 203 206 230 236 244 248 250 261 265 269 277 284 292 287 301 299 302 293 287 272 268 260 252 249 243 225 218 202 199 190 210 214 210 194 187 186 166 161 153 152 148 145 137 130 118 114 109 106 104 100 94 93 90 91 95 89 88 87 82 79 80 78 77 78 78 77 71 71 70 67 67 65 66 66 69 71 64 59 58 58 56 56 56 55 53 53 53 51 51 50 49 49 48 48 48 46 46 46 44 44 46 47 49 50 53 55 56 73
267 262 254 251 243 250 245 244 246 232 221 215 211 211 205 204 204 206 208 213 219 222 226 233 234 246 259 286 272 267 261 255 254 268 276 274 281 288 287 294 283 291 296 284 265 261 264 255 242 256 272 278 263 245 240 241 224 221 237 237 221 229 210 210 217 224 222 216 221 224 227 230 217 225 213 204 210 212 187 191 181 175 176 173 190 175 175 177 180 180 177 169 169 169 171 174 173 176 178 179 180 181 182 192 193 194 195 193 194 195 195 195 193 194 195 196 196 188 189 188 189 193 187 190 190 188 184 183 183 184 184 186 184 203 213 239 245 254 261 262 265 275 275 286 296 299 315 323 302 292 287 281 272 263 255 249 237 231 217 200 201 211 221 219 208 202 199 185 176 167 162 157 157 149 139 130 124 117 113 113 109 107 102 97 94 97 98 95 90 89 83 84 81 80 79 78 77 74 72 71 70 68 67 67 67 67 66 69 66 60 60 58 58 56 56 55 55 53 53 51 51 51 50 50 49 48 48 48 48 46 46 44 46 46 47 49 52 58 64 69
269 272 259 242 230 230 234 229 226 226 222 212 202 202 203 203 204 205 218 221 223 228 232 235 234 234 250 260 289 290 282 277 289 297 287 301 296 288 302 303 300 305 294 279 258 245 248 255 238 233 250 261 254 244 228 216 220 227 211 212 226 206 224 229 236 237 240 232 224 220 223 226 212 209 195 202 194 199 180 175 168 197 189 184 180 165 167 168 167 167 167 167 179 182 189 188 187 179 179 180 181 185 187 186 191 192 193 193 193 194 191 191 191 190 188 189 194 194 193 193 193 193 190 187 188 184 183 182 182 182 193 205 181 198 230 236 246 251 255 260 264 271 278 289 301 311 318 325 308 296 286 275 267 260 254 246 237 228 214 207 215 227 231 220 209 203 196 193 182 175 167 161 159 156 152 141 128 124 120 117 119 110 105 100 101 100 96 90 93 91 85 84 83 82 81 78 77 75 74 71 70 69 69 67 67 66 66 63 61 61 60 60 58 56 56 56 55 55 53 53 51 51 50 50 50 49 48 48 48 48 46 46 44 46 47 47 52 56 66 75
256 290 279 254 229 219 218 215 214 213 206 200 200 201 221 221 222 236 242 236 234 236 256 256 248 243 254 265 281 292 295 291 294 310 323 334 306 287 290 297 288 292 293 279 256 246 236 229 245 226 227 233 224 220 224 206 212 216 226 236 245 243 242 243 234 231 245 247 238 224 220 226 227 216 202 189 177 169 170 166 166 167 167 165 166 167 166 176 170 167 171 183 181 188 190 189 188 185 185 187 180 188 188 188 188 188 186 190 190 191 191 191 190 189 188 186 187 189 189 188 186 188 190 190 195 193 201 205 197 202 212 228 233 239 226 227 237 244 262 265 269 271 277 292 304 319 319 309 298 288 280 271 263 255 251 244 237 228 215 224 227 237 233 231 224 217 217 217 201 186 190 168 168 162 156 149 141 131 128 123 118 109 107 105 101 99 92 90 90 97 90 84 83 82 81 78 77 77 76 71 67 65 69 67 66 66 65 63 61 61 60 60 58 58 57 57 56 55 55 53 53 51 51 51 50 50 48 48 48 48 46 46 46 44 44 46 49 52 52 56
233 264 282 262 228 224 207 208 208 204 200 200 200 208 215 224 230 240 247 245 253 255 281 300 295 293 278 293 298 301 305 310 310 303 296 282 271 264 275 281 275 282 280 276 263 245 230 222 218 215 211 207 210 208 212 209 220 241 254 248 242 227 234 229 218 212 228 238 239 229 232 227 220 210 198 184 168 168 168 169 166 166 165 166 183 172 186 173 171 165 168 186 185 188 189 188 188 189 187 188 187 188 187 186 186 187 188 188 190 186 188 190 191 190 188 186 185 186 186 188 188 189 192 193 197 197 205 208 216 220 216 224 229 239 252 252 250 250 247 261 265 271 277 294 306 313 319 307 295 283 276 269 263 254 247 242 238 229 225 234 246 241 237 237 238 239 239 237 220 210 202 192 178 169 165 155 151 135 129 125 118 114 109 104 98 95 92 91 90 93 90 86 85 84 81 78 77 76 74 73 69 69 69 69 68 66 65 63 63 62 60 60 60 58 58 57 57 55 55 55 53 53 52 51 50 50 50 50 48 48 48 46 46 46 46 46 46 47 49 50
224 257 283 271 256 247 235 216 207 199 198 199 200 201 225 240 239 235 229 243 238 233 247 279 275 275 283 280 264 288 293 304 303 293 280 268 252 249 265 275 260 239 257 252 247 229 215 214 220 218 217 212 205 204 202 213 216 241 212 220 214 213 213 209 225 239 228 224 228 226 229 217 213 202 180 172 182 198 196 189 186 189 187 188 193 196 196 193 189 181 172 179 183 185 187 187 190 197 193 199 191 188 185 187 193 187 192 186 186 188 190 186 187 189 189 185 184 184 185 185 185 184 184 190 198 204 207 214 222 229 231 229 228 235 243 251 261 260 250 250 258 266 277 285 291 301 304 301 291 282 275 263 254 248 248 250 244 246 241 242 251 251 249 249 246 244 243 233 228 221 204 193 185 176 163 157 147 138 131 126 123 122 115 108 99 95 94 93 91 90 89 89 87 84 81 80 77 74 75 73 69 71 71 69 68 68 66 65 63 62 62 60 60 60 58 57 57 55 55 55 53 53 53 52 50 50 50 50 50 48 48 46 46 46 46 46 44 46 46 47
253 269 276 262 244 232 222 212 198 198 198 198 203 214 223 235 228 220 218 221 218 223 226 227 239 256 257 258 274 284 300 304 293 282 278 275 267 235 241 249 254 237 236 232 224 215 213 220 222 221 236 228 215 221 201 202 197 203 202 200 204 204 195 204 214 222 217 212 208 221 214 206 194 185 170 169 201 206 205 204 204 199 195 197 195 199 199 191 189 186 180 176 185 186 187 191 189 194 203 205 206 201 194 195 191 202 202 189 185 202 197 192 190 183 185 187 183 183 182 183 182 182 183 185 192 206 211 217 223 230 241 243 228 239 245 251 265 270 258 256 254 263 271 277 287 294 295 290 280 281 282 265 255 260 255 254 248 245 246 255 256 257 256 254 253 249 241 243 238 226 208 195 188 176 172 160 153 145 134 129 126 124 116 110 102 97 96 95 94 91 90 89 87 86 85 82 79 78 75 72 71 72 71 71 70 68 67 67 64 64 62 62 62 60 59 57 57 55 55 54 53 53 53 52 50 50 50 50 50 48 48 48 48 48 46 46 46 46 46 46
269 247 240 244 232 219 209 201 197 197 201 207 215 227 249 240 230 227 213 215 212 221 216 219 221 232 240 259 271 282 291 294 289 278 263 266 275 253 233 231 248 240 227 217 215 215 223 220 234 249 257 241 228 234 230 221 198 211 220 223 231 227 211 195 184 195 197 194 197 190 179 178 170 169 168 177 186 191 195 201 187 192 197 202 202 205 202 192 188 186 183 174 175 180 182 185 184 184 185 190 198 205 211 204 205 204 213 201 208 213 215 204 189 184 183 186 185 182 184 183 181 180 181 183 191 205 212 216 222 227 238 243 243 247 247 256 259 269 267 256 257 262 269 273 277 288 286 293 287 296 291 283 275 270 255 255 256 252 259 265 264 266 261 261 262 258 254 256 254 254 232 217 208 202 190 163 158 146 141 137 132 123 114 107 102 100 97 98 94 93 92 91 89 86 85 82 81 78 75 74 76 74 73 71 72 70 68 67 65 64 64 64 62 60 59 59 57 57 55 54 54 54 52 52 50 50 50 50 50 50 48 48 48 48 48 48 46 46 46 46
255 233 220 226 222 211 201 196 197 197 206 232 254 248 262 245 235 222 210 204 206 211 214 231 241 250 262 269 283 287 286 268 277 251 239 239 264 263 233 224 221 219 219 216 214 220 226 229 224 230 260 255 230 238 241 215 228 237 210 221 239 244 243 218 182 181 184 177 182 174 179 189 189 200 206 193 178 180 190 187 185 195 198 212 214 203 211 195 193 191 185 172 177 184 185 184 181 183 182 183 183 188 188 195 202 211 208 205 215 220 203 202 197 183 181 185 185 180 179 182 180 179 181 182 191 201 213 219 225 232 236 242 248 243 245 250 255 255 257 254 255 259 264 270 282 293 301 308 307 300 293 285 276 270 263 254 262 263 271 269 269 281 275 271 266 262 262 261 256 260 251 254 252 227 220 203 167 156 151 148 137 132 137 121 108 107 102 103 99 96 94 90 89 86 87 85 83 81 78 77 77 76 75 73 72 70 70 67 66 66 64 64 62 61 61 59 59 57 56 55 54 54 54 52 52 50 50 50 50 50 50 48 48 48 48 48 46 46 46 46
237 240 243 204 206 213 196 195 200 206 219 237 265 255 233 224 221 210 202 203 214 214 238 257 263 266 271 277 272 274 263 247 261 244 226 227 226 223 223 222 223 226 222 232 237 246 237 245 254 241 252 252 246 254 237 221 230 239 222 215 216 227 244 228 214 203 197 181 186 197 188 175 188 204 194 204 202 189 170 182 188 193 198 204 214 208 215 206 196 188 184 178 172 180 183 184 188 185 182 181 181 181 182 181 181 183 182 185 195 196 209 208 189 184 185 180 181 183 179 178 180 177 177 184 190 197 208 218 221 227 234 240 246 235 240 242 243 235 243 243 254 255 262 274 288 306 318 334 322 311 298 282 280 271 269 266 267 275 286 280 282 290 279 273 269 266 272 266 262 261 260 257 255 245 239 239 188 166 159 153 146 144 138 130 116 112 107 105 102 98 96 92 94 91 88 86 83 82 79 76 78 78 76 75 74 72 71 69 67 66 66 64 62 62 61 61 59 59 57 56 56 54 52 52 50 50 50 50 50 50 50 50 48 48 48 48 46 46 46 46
217 216 216 221 195 195 195 195 203 214 231 252 255 247 228 213 200 200 200 209 213 226 244 249 257 260 264 256 244 250 242 228 226 225 218 220 220 222 224 226 230 227 225 244 233 244 251 270 268 257 260 274 262 260 237 228 232 236 220 222 226 216 227 236 222 208 210 199 192 198 203 197 191 178 185 197 198 192 195 177 180 190 194 194 196 203 202 198 194 187 184 180 170 180 181 181 185 194 200 185 190 184 183 180 180 180 180 180 184 188 186 210 199 200 202 194 179 180 179 183 182 180 177 175 188 195 204 209 218 223 229 231 226 229 229 226 224 234 235 242 248 255 257 276 290 304 312 324 322 313 298 265 280 284 279 279 284 286 286 280 296 303 278 274 265 275 277 269 266 267 265 254 255 249 243 240 201 173 163 156 152 148 141 132 127 123 115 109 104 103 99 95 94 91 90 91 86 85 81 78 78 78 77 75 74 72 71 69 68 68 66 64 64 64 63 61 59 59 58 56 56 54 52 52 51 51 50 50 50 50 49 50 48 48 48 47 46 46 46 46
208 201 197 195 195 195 194 210 220 232 230 240 228 221 214 198 198 199 213 219 229 231 234 232 230 231 240 231 219 211 216 212 213 215 217 225 237 244 231 238 264 261 255 248 275 254 252 259 271 277 282 276 276 266 245 232 248 236 235 233 240 217 230 231 229 218 219 209 203 181 200 211 209 199 183 190 197 199 194 194 181 182 190 189 189 191 197 193 191 188 182 178 168 178 181 181 180 181 182 197 201 198 201 197 186 199 198 184 185 200 188 204 211 202 188 180 177 178 176 184 184 184 175 174 175 176 203 205 210 214 215 224 185 193 190 203 217 225 233 236 244 250 259 270 285 289 292 316 302 301 284 263 264 284 294 292 297 294 305 306 303 303 299 295 296 289 281 276 269 266 265 256 260 253 249 239 216 192 175 168 161 155 149 138 131 125 120 113 109 103 102 100 94 93 92 93 88 87 86 89 90 85 79 76 76 74 71 69 69 68 68 66 65 64 63 61 61 59 58 56 56 54 53 52 52 52 51 52 50 50 50 50 49 48 48 47 47 46 46 46
194 194 194 194 194 195 215 208 196 204 210 213 213 201 197 197 204 205 218 219 221 219 216 223 216 204 205 206 207 208 209 210 212 223 228 234 250 270 275 285 277 274 273 279 276 266 256 269 276 300 295 295 287 264 269 245 241 262 254 253 241 219 226 237 235 228 218 203 187 198 191 205 208 197 188 191 196 198 198 192 176 185 190 189 187 192 191 188 185 183 180 177 170 177 181 185 185 192 185 182 187 193 202 205 200 207 195 185 188 204 197 210 207 198 192 195 176 177 175 188 187 183 177 174 174 173 172 172 174 197 170 170 181 190 199 202 214 227 223 232 235 239 242 256 261 274 282 290 290 291 280 269 263 271 287 310 314 310 304 299 298 294 291 291 281 281 279 275 270 263 257 254 248 253 236 226 220 201 187 177 167 159 150 141 133 125 121 115 111 111 107 100 98 97 91 93 92 89 86 103 106 92 79 77 76 74 73 71 71 70 68 68 66 65 65 63 61 60 60 58 56 54 54 53 53 53 52 51 51 51 50 49 49 49 48 47 47 47 47 46
194 194 194 194 193 198 194 194 194 194 194 194 196 195 195 195 200 204 197 203 199 199 200 201 201 202 203 204 205 207 220 252 232 243 241 245 249 265 286 299 287 292 290 297 291 280 280 298 292 306 292 267 283 276 263 265 261 268 273 254 237 228 223 237 233 215 207 196 210 202 190 191 204 198 195 192 192 199 196 185 185 191 188 191 190 190 190 187 185 183 180 178 173 168 179 183 199 203 190 200 197 192 193 198 216 205 192 198 198 206 211 211 218 210 208 197 178 175 174 190 192 185 184 180 179 178 178 190 175 173 176 183 201 217 232 239 247 245 244 253 249 252 251 259 263 262 269 273 272 272 264 260 260 275 284 306 296 292 295 296 289 284 278 273 278 276 273 269 269 266 259 248 243 240 235 227 224 217 199 186 172 164 155 146 140 128 125 120 119 115 105 102 98 97 94 96 90 92 96 101 95 89 81 79 78 76 73 72 72 70 70 68 68 67 65 63 62 60 60 58 58 56 56 54 53 53 53 53 51 51 51 51 49 49 49 47 47 47 47 47
194 193 193 193 192 193 194 193 193 193 193 193 193 194 193 194 194 195 196 195 196 198 199 199 200 200 202 214 221 224 229 251 252 260 266 268 277 281 299 301 305 311 313 313 307 301 297 286 276 272 282 261 246 245 240 242 251 260 260 259 251 241 237 236 229 215 213 213 210 210 197 193 199 202 200 202 200 203 195 183 187 194 195 194 191 190 196 191 186 186 179 177 174 171 177 179 190 201 204 207 201 203 205 205 201 201 203 205 200 201 208 205 198 201 197 195 174 174 173 175 193 191 184 185 184 186 190 195 200 205 207 205 199 200 204 221 231 233 241 248 260 258 249 250 262 260 259 269 260 258 253 251 251 261 270 282 276 277 287 292 287 283 274 272 262 272 272 262 264 261 256 248 247 243 237 232 226 218 212 197 182 165 157 151 144 129 127 124 119 114 108 107 98 99 99 97 92 91 88 87 82 81 81 80 78 80 77 75 74 72 72 70 69 67 65 65 63 62 60 60 60 58 56 55 55 55 53 53 53 51 51 51 49 49 49 47 47 47 47 47
193 193 193 192 192 192 192 192 193 193 192 193 192 193 193 193 194 194 194 195 196 196 196 197 201 205 209 217 227 241 254 251 270 281 294 300 298 297 297 290 275 284 308 307 304 304 287 276 264 251 252 257 233 233 228 235 236 242 246 241 248 250 253 246 232 221 219 224 220 212 206 204 205 206 210 200 195 192 194 178 185 190 194 192 191 187 194 193 196 187 181 177 176 172 174 177 178 187 186 201 187 178 181 193 178 179 191 198 194 192 192 196 201 199 192 180 180 185 174 171 172 189 176 180 189 187 191 196 204 207 212 216 218 218 212 220 222 228 236 247 255 260 250 253 250 256 259 266 263 256 249 243 243 248 257 261 265 271 278 284 281 278 270 268 263 248 243 243 234 247 245 244 243 238 239 224 222 220 209 190 177 171 163 150 145 138 133 125 121 117 113 104 102 104 98 95 93 91 90 85 82 81 81 80 80 79 79 77 74 74 72 70 70 69 67 67 64 64 62 62 60 60 58 57 55 55 53 53 53 51 51 51 49 49 49 47 47 47 47 47
193 192 192 192 191 191 191 191 191 191 191 192 192 195 192 209 209 207 207 199 207 215 221 218 216 215 219 221 224 252 268 278 282 297 303 301 292 278 277 271 262 266 286 274 286 280 260 264 258 245 249 230 232 241 250 247 244 248 249 254 252 263 255 244 233 230 229 229 225 224 212 213 209 213 211 200 199 191 189 187 182 179 179 184 185 188 187 193 191 185 179 177 176 172 167 174 174 175 175 174 175 174 173 173 174 176 179 182 180 180 190 202 212 202 192 199 192 187 173 173 189 177 186 179 180 185 185 193 202 207 212 221 225 226 232 234 227 230 235 240 245 257 253 249 247 256 259 252 257 254 247 240 236 241 240 249 257 261 269 273 272 272 268 265 258 254 243 230 227 228 212 233 235 232 230 226 216 206 196 182 173 161 151 149 142 136 131 125 121 113 109 108 104 101 98 96 93 92 89 86 84 81 82 80 80 81 79 77 76 74 74 72 72 69 67 66 64 64 64 62 62 60 58 57 57 55 55 53 53 51 51 51 49 49 49 49 47 47 47 47
192 192 191 191 191 191 190 190 192 197 205 199 201 216 225 240 235 224 213 216 209 217 231 247 235 234 248 243 253 264 277 286 291 272 286 286 279 279 266 256 252 242 251 259 263 284 252 244 238 232 225 228 233 236 245 255 256 267 261 264 257 260 244 234 240 237 239 227 219 216 215 204 207 208 211 204 201 199 196 190 189 188 178 184 193 194 196 199 193 186 183 179 176 174 170 168 172 172 172 172 172 171 174 176 176 173 175 175 177 180 186 192 213 203 208 205 201 194 184 170 184 191 185 180 176 178 175 188 192 206 210 218 225 228 236 242 241 239 241 244 242 241 243 242 249 243 229 227 221 236 224 226 220 223 230 245 242 261 265 269 270 269 261 257 252 248 244 240 230 226 220 205 207 227 203 186 183 174 161 156 157 150 154 148 143 136 131 127 123 116 112 105 102 100 97 96 93 92 89 88 85 82 84 84 82 81 79 78 76 76 74 74 73 73 69 67 66 66 64 62 62 60 59 59 57 55 55 53 53 51 51 51 50 49 49 49 49 49 47 47
191 191 191 191 190 190 190 189 190 191 200 210 231 234 230 237 238 235 230 225 223 225 234 252 247 261 259 259 261 270 280 279 279 265 255 260 262 274 267 255 246 238 234 247 262 269 247 231 225 223 228 235 238 248 260 259 264 258 248 237 239 253 243 229 224 228 227 218 208 202 199 205 208 213 212 204 201 206 198 194 195 195 186 183 184 189 198 210 195 192 188 181 177 174 171 171 166 167 173 174 177 182 185 187 184 185 175 173 175 178 186 207 208 201 200 203 197 194 194 176 172 190 187 182 178 177 174 180 182 183 197 206 214 220 228 231 233 234 238 243 251 237 237 238 246 229 225 222 220 218 216 216 215 220 255 258 256 247 257 258 257 266 267 266 253 240 237 227 216 213 208 211 177 180 192 198 177 164 161 183 180 171 162 148 143 138 131 128 124 118 110 105 104 102 104 98 95 96 91 88 88 87 86 84 83 81 80 78 78 76 75 75 73 71 69 68 68 66 66 62 62 61 61 59 57 55 55 53 53 53 52 51 50 50 49 49 49 49 49 47
191 190 190 190 190 189 189 189 189 189 189 193 200 221 223 222 233 234 227 238 238 243 251 257 256 261 256 242 253 264 264 255 265 265 245 240 248 262 261 250 238 230 222 254 252 235 215 220 228 248 243 242 249 259 259 260 252 239 243 231 228 241 247 234 223 213 214 202 198 196 214 212 204 213 207 200 197 201 199 201 201 193 186 179 187 188 193 204 210 200 183 179 177 174 171 172 172 168 169 170 172 172 172 179 187 198 183 179 174 176 179 187 191 193 197 197 199 197 194 194 191 180 183 186 191 191 178 184 183 182 192 195 203 209 214 218 222 228 237 236 242 238 232 231 224 221 220 219 236 234 215 215 216 226 236 237 239 240 242 250 253 266 272 267 262 247 235 228 222 212 204 198 187 193 195 210 209 206 201 192 177 170 164 155 145 140 135 131 127 120 115 107 108 105 104 98 95 94 93 92 90 87 86 84 83 81 80 80 78 77 75 75 75 73 71 70 68 68 66 64 63 63 61 59 59 57 55 55 54 53 52 52 52 51 50 51 49 49 49 47
190 190 194 206 204 197 191 188 188 188 192 194 193 199 213 220 212 221 212 221 226 229 245 239 230 238 247 230 240 245 245 253 259 262 244 229 234 246 240 242 233 221 217 221 221 213 230 237 252 251 243 243 265 258 265 254 241 223 222 226 210 241 243 235 222 204 195 191 206 210 214 224 213 203 198 197 193 197 195 198 205 197 199 185 184 188 185 192 214 208 184 181 176 174 175 180 175 169 168 165 169 171 171 172 176 187 200 189 180 176 176 182 194 203 201 199 198 199 195 193 192 189 189 190 191 192 198 198 195 188 190 194 196 201 206 212 218 221 220 227 227 230 226 224 218 218 215 217 230 228 214 214 216 221 226 234 238 240 241 247 247 269 280 277 270 257 251 247 230 227 222 229 218 219 213 210 205 201 195 185 174 165 158 152 144 139 132 128 126 121 118 113 108 104 100 99 96 95 93 92 91 89 86 85 83 82 82 79 79 75 75 75 75 73 72 72 70 68 66 66 65 64 61 59 59 57 56 56 54 54 54 52 52 52 51 51 51 50 49 48
189 189 188 201 217 214 195 187 187 187 187 190 189 198 210 212 202 211 216 209 227 235 240 236 221 218 217 215 242 252 259 263 255 237 223 217 221 211 207 214 213 208 233 250 242 229 257 248 249 242 243 257 246 227 241 251 228 239 226 206 207 230 230 226 209 195 202 211 214 207 219 212 206 202 204 189 191 192 191 189 190 190 193 188 185 196 192 187 196 207 197 178 179 187 194 183 172 167 166 166 169 170 185 178 176 184 203 198 192 187 178 175 182 196 199 199 200 198 197 194 193 190 188 189 192 192 196 198 202 206 209 205 191 193 200 205 207 211 214 217 220 219 221 220 210 205 207 210 222 223 214 213 215 221 229 240 245 254 248 248 247 276 291 286 262 259 255 248 236 230 227 225 219 215 213 206 200 196 190 184 174 165 159 148 144 138 133 129 125 121 115 108 106 101 100 99 96 97 94 92 91 91 90 88 85 84 82 81 81 77 76 75 75 75 74 72 70 70 68 67 67 66 65 63 59 59 58 56 56 56 54 54 54 52 52 52 51 50 50 48
188 187 187 192 197 194 187 187 185 186 186 186 186 187 187 196 196 196 193 203 216 219 221 205 207 221 247 246 241 252 240 234 231 234 217 211 204 211 214 246 249 244 251 253 242 229 242 235 232 231 254 249 227 219 230 238 210 226 227 221 200 209 217 201 194 200 208 203 198 212 214 205 198 190 191 184 188 185 183 185 188 191 196 192 201 205 198 190 192 206 199 182 194 190 180 176 171 166 165 167 170 173 183 191 186 182 189 194 200 192 181 180 187 180 184 183 196 200 201 195 192 192 190 196 193 195 197 198 201 205 213 219 218 208 205 206 205 208 211 211 212 207 207 203 203 204 202 202 215 214 212 212 218 224 233 243 264 277 269 259 252 264 278 279 266 255 248 248 243 238 230 231 224 213 218 216 216 195 189 179 173 166 161 161 145 137 133 126 122 117 111 107 104 102 100 99 97 97 96 94 93 92 92 91 86 84 84 84 83 79 76 76 76 76 76 74 72 70 70 67 68 67 65 63 61 60 58 58 56 57 56 56 54 54 54 52 52 52 50 50
187 187 186 186 185 187 189 185 185 184 184 184 185 184 192 202 209 209 203 197 201 205 213 229 240 248 237 233 228 224 219 209 206 198 205 200 206 215 225 250 256 250 231 218 212 211 228 224 221 232 239 234 225 210 220 218 226 209 205 199 191 186 183 190 182 190 192 189 189 198 195 189 186 178 187 183 184 193 196 196 194 198 197 193 198 198 205 200 199 203 187 193 191 177 174 168 168 166 163 165 169 184 193 192 200 190 200 196 199 194 199 199 195 195 192 187 188 200 197 196 193 191 189 193 197 193 198 200 200 203 210 217 228 224 216 214 210 210 212 215 212 206 202 197 200 211 202 202 210 207 205 209 216 232 245 266 297 295 291 274 261 251 246 250 236 238 239 234 245 237 228 222 219 212 214 208 204 192 188 181 172 163 160 149 142 136 130 127 119 112 108 106 105 102 101 100 99 97 96 95 95 94 94 93 91 88 86 86 83 83 81 78 80 78 76 74 72 72 74 71 69 69 67 65 63 61 60 58 58 58 56 56 56 56 54 54 52 52 50 50
190 186 188 185 185 184 187 185 184 184 183 183 183 183 185 198 205 217 203 204 204 219 226 218 234 203 205 196 203 194 189 192 206 215 216 222 218 213 210 217 227 225 214 209 209 218 226 226 228 218 212 207 199 198 198 200 214 194 191 185 184 190 200 199 196 197 198 198 194 188 190 181 190 194 198 189 187 182 185 187 191 196 201 199 206 201 199 199 204 198 200 191 187 183 191 189 170 166 163 163 165 169 172 187 175 189 199 188 182 186 193 194 196 193 194 190 186 190 188 192 191 190 190 190 194 196 203 203 205 207 214 219 222 226 223 217 214 214 208 210 208 206 198 191 190 204 196 200 198 200 201 204 217 231 249 276 307 321 299 287 270 246 238 229 225 225 223 224 218 228 230 219 215 210 205 197 193 190 189 180 174 164 156 146 138 138 123 119 115 111 109 106 105 106 103 102 99 98 96 99 97 96 94 93 93 93 92 90 88 85 83 83 82 80 78 76 74 76 74 74 72 71 69 67 65 63 62 60 60 60 59 59 58 57 56 54 52 50 50 48
197 199 189 185 184 184 186 186 184 183 183 183 182 181 181 181 181 181 188 187 192 195 199 195 192 189 188 186 184 185 201 212 221 226 224 218 207 201 188 189 192 195 190 195 208 209 209 200 194 197 194 193 189 196 193 187 185 185 202 225 229 223 214 212 214 203 192 203 199 202 197 189 184 194 204 204 196 186 184 195 192 198 207 211 212 195 193 194 190 187 199 197 193 191 179 172 168 165 163 164 162 163 165 167 166 166 166 170 166 170 176 166 164 172 188 195 193 193 193 191 189 191 188 188 189 195 200 205 207 209 214 216 215 219 222 227 226 213 214 216 220 223 199 190 194 193 191 190 196 196 199 203 212 226 240 268 290 301 296 283 262 246 230 223 220 216 214 217 214 215 218 219 216 208 200 196 198 197 189 182 175 162 152 147 140 132 125 119 115 113 107 106 109 108 105 104 101 98 97 99 101 101 98 97 95 94 94 94 91 89 87 87 84 80 80 77 80 76 76 75 74 73 71 69 69 67 64 62 60 60 60 60 59 58 56 54 52 50 50 50
188 189 184 184 183 183 185 183 185 183 183 183 182 181 181 180 180 180 180 180 179 180 180 184 179 183 184 181 199 212 215 218 209 211 209 202 195 186 192 202 201 208 214 205 195 198 199 201 200 201 199 203 201 202 202 200 196 195 194 199 201 199 201 206 207 210 209 207 215 207 198 194 198 193 201 206 196 183 183 187 189 195 203 199 194 186 189 186 184 184 191 192 197 190 190 184 175 169 167 164 165 161 162 161 161 161 162 162 163 163 162 161 162 161 166 171 183 191 179 187 188 175 173 182 166 183 183 187 192 190 203 208 212 216 220 229 232 231 215 215 208 208 200 190 191 191 190 190 192 197 196 202 204 213 227 251 266 271 275 269 254 237 222 217 214 209 211 205 205 209 212 214 208 205 197 196 197 197 184 184 168 160 152 146 139 134 130 117 113 112 108 107 109 108 107 106 101 100 101 101 103 103 102 99 97 98 98 96 94 93 91 91 86 86 84 84 86 82 78 77 76 75 75 71 69 67 66 64 62 62 62 60 60 58 54 54 52 52 50 50
185 185 184 183 183 183 187 187 182 184 183 183 182 181 180 179 178 178 180 177 180 178 178 177 190 193 185 185 185 182 181 180 182 183 190 185 196 208 220 230 248 233 235 223 235 231 226 219 219 220 205 213 209 213 208 213 210 213 198 207 191 200 185 193 197 208 212 215 229 215 202 205 206 219 214 203 194 184 186 196 191 191 193 192 187 184 181 179 180 187 194 193 188 187 181 183 180 171 166 167 163 168 166 164 163 162 160 160 161 161 161 165 166 160 161 160 161 161 160 160 162 161 166 175 175 179 175 180 187 191 194 205 212 214 218 224 230 227 206 206 205 197 199 192 191 190 190 189 189 189 193 193 197 207 222 236 252 263 267 257 245 231 220 215 208 205 198 201 202 200 211 208 204 203 205 200 199 204 180 167 162 159 151 145 136 129 119 112 111 109 108 109 111 110 107 105 103 104 103 103 103 104 106 103 101 100 98 96 97 97 95 95 91 90 88 86 84 84 82 80 79 75 75 75 73 69 67 69 66 65 62 60 56 56 56 54 53 51 51 51
184 184 183 183 182 182 183 186 182 181 181 191 186 186 182 179 177 177 177 177 177 181 179 176 177 176 176 175 175 179 178 183 181 196 198 199 220 230 233 236 246 251 250 245 241 247 249 238 232 224 226 233 230 217 219 224 231 220 216 229 223 203 200 197 202 197 199 203 212 216 216 214 220 215 206 200 188 192 197 196 188 191 192 185 182 180 177 177 176 178 175 171 172 175 172 176 186 177 181 172 165 164 171 193 178 169 165 166 170 162 161 163 168 174 161 159 162 165 171 185 160 185 186 186 188 190 180 181 183 191 191 197 204 207 208 215 224 222 217 208 204 204 198 193 188 190 188 188 186 185 190 195 196 206 219 234 244 256 266 242 236 228 221 213 205 195 192 189 191 196 199 198 202 199 197 197 196 198 181 170 161 158 156 148 140 125 118 113 110 109 108 109 110 109 114 113 112 108 105 103 106 108 105 107 105 102 102 106 100 99 95 95 93 93 90 90 86 84 84 84 81 79 77 77 75 75 71 69 69 67 62 59 57 57 55 55 53 51 51 52
