ncols         240
nrows         84
xllcorner     -123
yllcorner     43.3583333333
cellsize      0.008333333333
NODATA_value  -9999
145 143 146 149 148 150 151 152 153 156 156 161 156 159 165 162 169 167 174 175 192 182 177 228 253 218 253 318 394 502 570 540 660 715 843 805 889 843 876 857 775 884 1017 1097 1050 993 945 839 729 719 712 732 618 542 650 638 672 752 817 809 915 945 1029 1045 847 715 718 861 779 733 686 757 784 806 909 735 633 573 637 532 695 821 1038 1011 972 931 1078 1223 1280 1080 918 831 625 542 780 854 1001 1244 1302 1392 1221 1115 1216 1187 1171 1280 1331 1390 1347 1355 1338 1376 1448 1415 1322 1233 1113 1309 1042 978 940 1122 1154 1211 1311 1284 1317 1369 1440 1468 1520 1564 1589 1585 1532 1564 1613 1698 1799 1865 1964 1980 1917 1912 1883 1949 2012 2031 2025 1937 1858 1837 1848 1914 1940 1999 2033 2085 2150 2178 2165 2126 2070 2033 1995 1906 1873 1838 1788 1875 1863 1864 1854 1822 1857 1758 1737 1716 1689 1597 1506 1490 1454 1420 1375 1341 1338 1300 1282 1266 1243 1186 1185 1199 1174 1165 1145 1141 1164 1119 1108 1105 1111 1111 1121 1118 1120 1111 1107 1112 1102 1095 1101 1094 1090 1095 1081 1081 1078 1078 1080 1071 1063 1062 1049 1046 1051 1048 1045 1040 1035 1037 1035 1039 1033 1035 1029 1035 1036 1041
143 145 147 147 147 149 152 155 157 158 159 161 170 199 251 309 290 251 312 208 281 329 387 423 327 331 331 349 465 547 648 745 762 875 914 893 824 726 740 766 658 700 898 709 897 754 764 739 706 618 700 497 648 692 754 756 771 795 890 976 968 1212 1106 920 828 889 850 1051 913 973 887 870 881 942 918 730 713 610 690 754 599 638 717 677 898 1007 1166 1120 1189 1020 932 833 768 611 598 796 738 875 980 1027 953 973 945 971 998 1091 1135 1195 1169 1242 1326 1494 1643 1459 1362 1362 1367 1252 994 1108 1295 1107 1281 1180 1220 1231 1313 1369 1450 1492 1578 1622 1655 1687 1782 1719 1622 1671 1752 1808 1840 1925 1923 1889 1856 2041 2004 1945 2035 1961 1810 1797 1815 1820 1816 1919 1952 2016 2060 2095 2082 2088 2058 2018 1957 1916 1860 1766 1733 1699 1706 1826 1805 1786 1798 1822 1768 1691 1610 1590 1532 1471 1421 1406 1372 1346 1322 1306 1278 1252 1219 1221 1206 1182 1178 1153 1165 1155 1139 1123 1115 1101 1108 1123 1123 1130 1123 1119 1121 1117 1112 1110 1117 1111 1102 1091 1087 1096 1094 1090 1090 1082 1072 1068 1056 1055 1059 1057 1046 1043 1042 1041 1037 1041 1035 1036 1036 1039 1045 1048
145 147 148 147 152 149 166 176 176 208 287 223 297 356 414 519 460 410 311 301 326 360 443 523 401 466 556 527 565 666 737 821 844 732 828 787 782 738 681 633 587 596 693 613 801 768 673 682 572 559 482 531 564 635 727 857 929 1028 1042 1222 1060 1096 920 834 978 1031 1056 899 816 824 812 705 845 819 1038 802 847 909 932 774 874 844 626 889 1190 1213 1261 1360 1237 1090 1047 982 883 775 661 570 807 746 721 735 771 831 1067 1089 1060 999 1065 1050 1138 1214 1277 1524 1629 1499 1612 1552 1438 1364 1195 1022 1308 1350 1289 1204 1175 1180 1239 1314 1374 1476 1533 1608 1673 1702 1793 1885 1817 1814 1863 1850 1836 1824 1827 1845 1888 1788 1737 1682 1704 1809 1723 1741 1678 1698 1745 1867 1902 2018 2064 2066 2078 2087 1998 1984 1922 1921 1855 1835 1746 1717 1738 1572 1699 1762 1694 1580 1580 1586 1439 1423 1435 1431 1433 1422 1368 1353 1326 1299 1287 1268 1249 1219 1187 1179 1182 1164 1154 1153 1147 1139 1107 1128 1127 1134 1140 1134 1131 1128 1125 1125 1115 1132 1132 1127 1109 1101 1096 1101 1098 1091 1094 1082 1080 1072 1069 1064 1062 1054 1050 1047 1050 1043 1041 1039 1040 1042 1048 1047 1054 1051
148 148 151 143 148 148 154 151 166 176 334 389 496 476 468 491 505 472 468 419 422 412 501 578 549 602 610 594 635 693 768 721 740 640 604 662 663 743 690 602 575 539 469 561 743 734 661 475 498 507 521 617 646 841 823 900 1050 939 867 793 949 1128 910 745 801 861 852 814 702 659 638 867 908 1081 1078 1001 866 1107 948 877 991 1010 796 824 864 987 1288 1401 1260 1419 1224 1056 949 842 719 742 645 699 954 1091 1209 1252 1338 1392 1336 1288 1041 1067 1115 1200 1321 1652 1541 1486 1495 1503 1414 1376 1327 1187 1073 1252 1327 1254 1276 1194 1214 1261 1270 1289 1406 1522 1585 1644 1704 1742 1745 1764 1806 1852 1935 1820 1791 1811 1878 1734 1702 1676 1824 1700 1654 1657 1671 1797 1997 1979 2036 1890 2012 1965 2049 2063 2046 2000 1942 1818 1844 1763 1714 1678 1641 1619 1496 1490 1559 1581 1556 1470 1492 1580 1562 1501 1461 1414 1389 1359 1328 1315 1303 1259 1228 1207 1206 1188 1221 1186 1164 1165 1172 1122 1148 1154 1152 1146 1144 1136 1129 1129 1133 1131 1126 1140 1136 1124 1113 1105 1110 1119 1103 1093 1095 1091 1084 1075 1070 1063 1054 1054 1051 1052 1051 1042 1042 1051 1058 1060 1057 1062 1060 1056
142 143 187 196 162 148 163 153 157 162 186 204 330 398 431 397 473 476 451 536 524 535 614 638 643 619 566 511 599 677 632 600 725 675 537 542 604 682 669 585 545 481 471 669 587 570 461 425 535 629 667 700 796 838 910 923 876 764 904 697 717 779 1021 907 788 606 689 616 598 666 885 918 901 1078 931 896 818 989 1159 1058 1117 929 843 730 1011 1053 1233 1496 1505 1348 1072 1029 951 892 775 915 888 765 643 818 976 1035 952 1068 1365 1505 1289 1256 1074 1131 1236 1300 1309 1401 1443 1437 1466 1449 1402 1397 1344 1258 1286 1332 1405 1372 1280 1305 1301 1271 1379 1436 1494 1550 1598 1627 1672 1715 1790 1799 1845 1796 1758 1744 1701 1681 1673 1661 1808 1799 1654 1661 1682 1768 1826 1833 1919 1860 1902 1936 2011 2057 2159 2044 2016 1946 1835 1780 1750 1653 1620 1593 1603 1565 1544 1578 1633 1719 1650 1595 1554 1523 1509 1436 1407 1376 1359 1344 1324 1294 1246 1236 1235 1225 1226 1196 1175 1186 1172 1172 1171 1161 1153 1146 1141 1136 1133 1140 1133 1130 1124 1129 1143 1143 1134 1120 1128 1131 1117 1109 1107 1109 1102 1089 1076 1069 1066 1065 1057 1056 1057 1052 1049 1054 1052 1072 1075 1069 1061 1056
141 143 185 371 274 254 149 157 158 169 189 263 212 261 354 421 362 419 333 412 413 424 549 524 489 516 528 463 548 548 524 602 681 674 538 455 485 595 538 570 544 470 434 433 425 403 599 607 722 721 723 776 926 986 1047 843 788 619 582 670 630 977 968 849 806 643 570 601 691 777 913 1088 891 771 779 842 802 917 906 1029 1234 1116 1088 929 1015 981 1033 1284 1529 1465 1198 1139 968 969 1008 1136 994 766 743 664 839 980 941 1002 1160 1353 1463 1457 1208 1155 1189 1334 1423 1595 1505 1490 1472 1463 1421 1415 1396 1356 1366 1385 1385 1404 1455 1483 1435 1359 1395 1423 1433 1503 1528 1578 1624 1664 1693 1704 1729 1738 1717 1694 1668 1636 1639 1660 1763 1748 1654 1663 1677 1723 1756 1827 1852 1873 1882 1926 1960 2112 2173 2137 2056 2006 1921 1902 1815 1782 1780 1763 1754 1750 1718 1701 1689 1660 1620 1579 1526 1490 1451 1439 1391 1369 1346 1331 1324 1307 1289 1256 1222 1204 1199 1199 1186 1174 1177 1174 1167 1163 1153 1150 1148 1143 1146 1140 1135 1127 1136 1138 1150 1144 1142 1146 1136 1129 1124 1122 1128 1115 1099 1088 1085 1083 1076 1073 1068 1070 1066 1063 1063 1065 1065 1075 1080 1068 1074 1062
145 144 214 352 385 362 212 154 157 158 168 216 203 303 367 394 306 386 400 324 431 539 532 506 443 391 349 419 561 614 671 679 621 505 423 404 417 400 354 385 343 438 543 662 572 700 763 708 684 596 724 886 712 706 692 798 583 836 615 467 576 813 771 813 763 492 669 812 813 759 1002 896 911 791 869 597 652 914 823 870 907 943 1108 960 1121 1221 1220 1090 1394 1584 1372 1160 1114 1278 1401 1187 978 764 714 744 927 1121 1425 1168 1216 1337 1688 1493 1357 1410 1199 1232 1330 1489 1496 1478 1501 1491 1466 1443 1419 1385 1364 1376 1415 1404 1428 1468 1507 1551 1593 1525 1452 1428 1500 1534 1551 1596 1622 1650 1670 1678 1664 1622 1594 1590 1594 1683 1714 1722 1669 1672 1711 1733 1783 1834 1918 1989 1931 1925 1990 2169 2299 2185 2061 2004 1974 1903 1846 1796 1803 1774 1763 1757 1732 1675 1661 1646 1619 1605 1541 1491 1469 1432 1408 1379 1351 1338 1320 1306 1266 1233 1212 1201 1195 1169 1188 1188 1182 1179 1181 1181 1185 1182 1161 1156 1150 1156 1148 1126 1133 1153 1150 1159 1153 1150 1146 1142 1134 1134 1132 1138 1132 1123 1100 1092 1089 1083 1086 1081 1076 1077 1076 1080 1076 1085 1087 1079 1079 1066
148 149 147 218 240 211 179 162 157 179 161 163 172 184 224 269 269 247 309 344 427 413 403 318 347 406 571 603 629 605 533 496 477 453 384 356 351 387 398 562 599 671 629 602 541 549 629 606 591 686 807 741 597 522 746 656 639 743 774 620 531 663 701 584 451 685 740 641 640 984 962 788 689 706 637 625 735 697 829 885 891 1109 1188 1091 1332 1422 1300 1256 1254 1605 1400 1107 1492 1289 1159 1140 888 726 691 828 1017 1073 1238 1513 1323 1259 1340 1483 1558 1402 1243 1288 1290 1221 1300 1379 1496 1502 1516 1454 1424 1397 1395 1425 1416 1484 1473 1484 1504 1550 1620 1672 1656 1556 1560 1542 1558 1579 1608 1598 1615 1585 1573 1563 1552 1554 1571 1613 1659 1670 1665 1660 1716 1766 1834 1925 2086 2177 2105 2006 1951 2067 2149 2169 2063 1976 1932 1937 1889 1883 1814 1874 1774 1787 1758 1754 1729 1637 1608 1559 1546 1499 1489 1479 1407 1367 1353 1316 1296 1277 1254 1234 1225 1199 1196 1210 1185 1197 1198 1193 1190 1191 1200 1193 1174 1166 1172 1182 1172 1148 1152 1155 1157 1167 1172 1160 1155 1150 1148 1143 1162 1149 1147 1133 1122 1104 1094 1092 1096 1103 1100 1095 1096 1101 1100 1098 1089 1088 1081 1071
154 147 148 147 148 181 192 165 170 161 164 172 173 193 238 336 362 361 302 272 293 306 399 487 564 575 535 520 484 448 421 345 336 278 287 331 338 388 480 684 719 660 527 456 426 371 448 546 578 579 699 664 632 472 549 627 581 566 535 480 438 444 452 473 490 503 538 545 621 611 635 575 561 514 721 595 701 818 1037 1022 1114 1241 1206 1162 1246 1356 1565 1374 1444 1443 1232 1473 1341 1025 1035 912 882 748 677 832 987 1345 1566 1419 1575 1364 1642 1462 1575 1381 1465 1493 1496 1452 1458 1376 1387 1486 1486 1475 1438 1419 1403 1439 1492 1474 1486 1512 1520 1558 1584 1672 1841 1728 1674 1636 1604 1601 1619 1644 1699 1578 1525 1526 1539 1647 1569 1574 1630 1628 1621 1645 1714 1800 1938 2118 2310 2394 2284 2139 2013 1956 1948 1958 1949 1889 1851 1856 1977 1856 1812 1779 1748 1741 1739 1735 1668 1625 1599 1572 1538 1501 1460 1430 1403 1370 1359 1337 1289 1253 1213 1212 1201 1210 1200 1211 1204 1196 1199 1201 1209 1209 1216 1208 1218 1203 1194 1204 1187 1183 1178 1179 1182 1180 1175 1167 1165 1185 1189 1170 1166 1165 1161 1148 1140 1124 1120 1102 1112 1120 1120 1111 1119 1123 1108 1101 1093 1090 1079 1077
209 166 156 153 151 176 196 168 165 166 167 164 165 183 166 292 382 414 341 378 351 433 497 406 531 390 321 321 327 280 243 290 348 356 421 392 437 374 393 424 476 499 576 383 483 535 549 560 587 497 533 447 453 449 454 536 620 414 377 511 555 634 528 602 589 628 500 619 553 607 638 620 702 804 837 840 685 698 771 895 1015 1186 1416 1277 1422 1365 1336 1376 1545 1441 1537 1310 1378 1193 1525 1289 1042 833 726 718 863 1025 1180 1441 1348 1462 1362 1418 1266 1411 1496 1453 1536 1466 1472 1450 1401 1396 1404 1428 1433 1423 1408 1429 1467 1529 1546 1578 1573 1592 1643 1709 1716 1749 1710 1677 1644 1618 1612 1606 1597 1568 1539 1492 1532 1604 1528 1574 1568 1588 1603 1638 1729 1818 1972 2229 2561 2716 2486 2265 2109 1949 1881 1805 1787 1784 1799 1773 1766 1802 1826 1788 1744 1719 1700 1700 1629 1621 1612 1590 1552 1506 1458 1420 1392 1413 1301 1277 1260 1241 1227 1205 1230 1232 1212 1212 1215 1204 1208 1223 1227 1231 1223 1222 1234 1230 1219 1226 1230 1209 1205 1210 1202 1195 1191 1191 1183 1210 1204 1193 1192 1190 1190 1182 1165 1147 1130 1125 1135 1145 1144 1153 1152 1140 1118 1105 1085 1083 1076 1074
293 277 194 151 149 169 185 193 174 171 175 173 169 167 178 173 177 209 233 242 280 329 322 312 310 252 237 258 237 229 321 427 495 485 460 387 366 354 254 247 305 276 280 296 363 440 459 357 339 329 346 352 408 434 363 358 361 418 573 740 827 744 690 743 792 669 591 659 665 808 715 705 609 801 1049 1111 975 671 907 998 1076 1249 1465 1511 1433 1285 1306 1236 1343 1309 1507 1523 1392 1453 1310 996 970 831 766 834 725 775 918 966 956 1013 988 1264 1011 1184 1324 1106 1219 1302 1508 1502 1457 1486 1456 1445 1444 1445 1420 1410 1446 1470 1515 1557 1593 1630 1655 1680 1686 1687 1755 1794 1758 1653 1655 1706 1751 1696 1536 1492 1532 1526 1516 1535 1561 1569 1600 1612 1690 1794 1911 2119 2322 2421 2362 2214 2060 1912 1817 1785 1764 1742 1739 1747 1734 1743 1769 1765 1754 1708 1661 1657 1656 1659 1621 1586 1547 1497 1449 1417 1396 1356 1308 1295 1276 1252 1222 1225 1246 1238 1246 1250 1233 1211 1220 1241 1260 1261 1255 1236 1236 1250 1245 1254 1238 1242 1243 1246 1218 1201 1214 1222 1216 1204 1221 1212 1216 1212 1208 1201 1197 1179 1163 1147 1143 1151 1159 1167 1173 1149 1132 1106 1093 1090 1087 1085
246 182 156 154 155 162 210 173 192 203 208 191 181 177 173 178 177 179 180 184 190 206 230 232 209 203 240 254 409 391 423 399 391 392 397 356 301 237 294 363 406 430 415 411 332 358 322 409 418 428 379 456 455 478 480 487 474 447 462 540 586 589 533 691 713 814 665 810 944 904 750 746 781 925 952 1119 955 732 896 869 1012 1178 1364 1325 1277 1195 1269 1218 1217 1235 1317 1352 1507 1380 1372 1335 1149 962 869 849 1003 797 727 742 782 784 818 836 876 888 870 882 896 952 1096 1186 1405 1349 1389 1419 1372 1292 1266 1205 1192 1284 1378 1417 1448 1519 1558 1615 1649 1685 1724 1782 1841 1792 1679 1667 1613 1688 1567 1505 1508 1520 1520 1534 1545 1580 1590 1621 1653 1725 1802 1953 2126 2192 2165 2079 1982 1867 1791 1747 1727 1714 1711 1695 1694 1718 1733 1751 1702 1709 1669 1663 1665 1682 1610 1591 1579 1498 1452 1422 1395 1374 1353 1286 1249 1251 1222 1239 1248 1248 1254 1246 1224 1227 1239 1251 1269 1278 1274 1263 1267 1266 1279 1284 1282 1278 1275 1268 1262 1250 1243 1257 1277 1250 1240 1240 1228 1234 1227 1225 1207 1190 1186 1173 1184 1166 1169 1173 1174 1152 1123 1115 1107 1094 1091 1081
168 164 152 153 158 168 262 242 179 202 203 196 198 189 182 177 182 183 229 208 214 212 189 269 346 306 254 280 243 240 319 236 236 244 237 231 316 398 467 564 593 580 629 496 586 490 604 482 566 528 441 567 568 573 472 556 572 607 565 715 590 569 493 484 669 839 865 948 1058 958 797 763 1024 1237 1313 1149 930 722 895 1059 1091 1129 1146 1219 1164 1072 1108 1085 1144 1421 1497 1401 1351 1302 1254 1346 1236 1064 971 1004 835 1170 1008 952 907 832 796 811 810 811 910 1138 996 938 865 905 950 960 953 963 985 989 1134 1290 1315 1343 1290 1364 1406 1473 1509 1593 1649 1694 1728 1745 1818 1771 1651 1645 1596 1553 1555 1515 1518 1537 1531 1528 1536 1556 1570 1595 1618 1687 1776 1880 2003 2086 2100 2022 1940 1861 1788 1744 1697 1679 1646 1670 1665 1681 1824 1742 1712 1696 1703 1672 1679 1719 1561 1532 1513 1488 1456 1391 1366 1336 1269 1255 1240 1229 1244 1248 1259 1265 1260 1246 1263 1253 1251 1254 1276 1291 1301 1300 1291 1280 1287 1296 1297 1300 1296 1298 1282 1303 1280 1276 1285 1277 1272 1262 1255 1245 1245 1242 1227 1218 1209 1204 1210 1213 1177 1152 1137 1139 1133 1114 1100 1093 1092 1092
158 165 156 156 158 162 194 211 202 187 250 280 276 259 198 196 182 178 186 195 211 249 217 211 225 200 199 236 230 234 234 236 279 345 341 383 497 599 549 611 691 722 712 674 711 702 753 680 637 602 601 745 705 610 671 748 809 665 685 896 669 539 620 632 610 584 696 726 978 1092 1133 1015 1235 1145 1057 993 819 895 1074 1179 1021 1156 1218 1111 1036 1034 1006 1049 1054 1128 1130 1058 1058 1097 1067 1240 1426 1230 1307 1252 1062 1033 1176 1389 1261 1143 1085 1161 1298 921 895 1076 1174 1331 1034 918 1081 1130 1278 1303 1281 1419 1417 1434 1447 1479 1386 1389 1415 1475 1469 1558 1600 1655 1631 1696 1769 1767 1682 1642 1635 1610 1575 1540 1504 1518 1524 1524 1520 1532 1576 1601 1620 1684 1772 1859 1961 2054 2109 1938 1872 1832 1782 1735 1689 1632 1621 1613 1635 1652 1673 1685 1692 1679 1674 1677 1697 1695 1624 1543 1504 1496 1488 1435 1370 1329 1269 1245 1242 1236 1242 1247 1261 1275 1296 1314 1305 1287 1275 1271 1301 1311 1307 1322 1319 1309 1317 1384 1326 1319 1306 1310 1314 1323 1301 1296 1290 1296 1296 1285 1278 1269 1261 1262 1255 1267 1255 1243 1248 1234 1168 1154 1148 1126 1121 1114 1104 1101 1120 1136
167 160 159 160 161 164 168 216 211 197 254 269 304 398 367 277 200 194 192 192 190 209 235 299 295 324 225 256 302 289 292 234 373 425 481 520 582 438 485 505 595 663 681 881 800 892 1008 801 775 772 750 828 760 714 757 814 868 929 837 1042 947 678 663 616 689 767 668 855 876 1059 1346 1330 1453 1278 1139 1050 1119 1208 1225 1081 1012 1138 1238 1103 975 979 974 988 1070 1073 1093 1184 1338 1482 1192 1165 1494 1553 1320 1136 979 898 1129 1397 1641 1333 1412 1324 1305 1030 1184 945 1107 1407 1216 1034 959 1166 1384 1381 1432 1436 1446 1438 1451 1471 1533 1551 1521 1489 1495 1533 1587 1601 1648 1686 1762 1697 1714 1714 1680 1637 1602 1562 1539 1501 1473 1480 1491 1523 1560 1613 1630 1667 1766 1840 1927 1955 1940 1879 1811 1776 1742 1710 1664 1609 1570 1602 1606 1608 1623 1646 1668 1641 1623 1621 1642 1630 1630 1632 1509 1471 1459 1413 1374 1334 1313 1297 1265 1288 1272 1285 1294 1294 1325 1370 1315 1296 1288 1298 1324 1317 1335 1343 1340 1338 1331 1325 1340 1335 1339 1342 1339 1345 1344 1333 1321 1335 1312 1308 1298 1289 1292 1289 1278 1282 1278 1270 1261 1310 1424 1348 1272 1239 1178 1206 1169 1128 1166 1189
159 158 161 163 164 168 171 184 239 215 241 270 372 315 247 201 197 206 249 193 194 195 212 269 322 247 306 401 555 577 516 358 372 324 239 326 441 340 383 408 454 632 893 779 746 722 682 749 789 913 1001 943 907 776 827 906 928 970 1030 1063 1004 852 683 689 599 844 827 986 954 1217 1159 1119 1042 1004 1193 1236 1120 972 1052 1071 942 1027 1163 1026 942 958 1098 1100 1161 1269 1241 1334 1486 1452 1380 1191 1393 1572 1310 1101 1365 1102 1130 1194 1401 1715 1664 1502 1436 1381 1273 1094 1236 1484 1530 1358 1155 1043 1012 1087 1342 1434 1448 1446 1466 1562 1568 1552 1538 1540 1521 1506 1599 1618 1660 1734 1765 1702 1711 1753 1780 1695 1645 1596 1538 1467 1455 1464 1488 1534 1533 1598 1626 1669 1756 1807 1850 1871 1854 1802 1762 1720 1691 1657 1609 1571 1540 1531 1527 1558 1597 1637 1727 1701 1618 1608 1604 1585 1592 1603 1514 1430 1396 1374 1343 1298 1274 1275 1272 1290 1277 1296 1305 1322 1326 1352 1331 1318 1363 1349 1342 1339 1352 1353 1358 1352 1347 1348 1343 1354 1375 1380 1363 1371 1372 1359 1331 1331 1331 1322 1323 1317 1312 1310 1301 1301 1294 1288 1336 1394 1391 1481 1439 1377 1336 1285 1271 1204 1150 1293
163 164 166 177 176 184 180 228 328 302 260 249 337 386 324 220 206 260 320 231 199 207 206 213 214 225 247 315 408 451 512 556 632 593 544 388 260 387 441 397 433 490 719 622 680 616 542 629 779 820 956 982 1000 881 853 928 1055 1119 1150 1235 1212 986 818 769 734 786 896 1081 1287 1138 1088 980 1075 954 987 1008 895 889 844 864 947 987 874 951 979 1001 991 1039 1125 1325 1442 1503 1505 1474 1426 1291 1455 1475 1275 1242 1593 1322 1080 1186 1343 1610 1627 1595 1583 1485 1332 1120 1189 1272 1310 1373 1425 1437 1280 1304 1190 1331 1439 1468 1497 1520 1598 1718 1645 1660 1591 1562 1554 1611 1662 1743 1718 1727 1709 1731 1777 1883 1729 1650 1560 1503 1450 1448 1470 1475 1507 1556 1619 1663 1730 1760 1785 1832 1782 1761 1730 1695 1654 1617 1574 1552 1512 1489 1490 1518 1554 1590 1605 1626 1591 1599 1600 1626 1562 1517 1509 1438 1414 1397 1374 1331 1276 1285 1289 1293 1301 1298 1303 1328 1345 1352 1344 1359 1368 1375 1378 1364 1368 1373 1373 1378 1377 1390 1405 1402 1408 1414 1418 1411 1401 1392 1360 1355 1367 1369 1351 1355 1344 1333 1317 1304 1292 1290 1350 1402 1435 1421 1468 1476 1427 1377 1329 1285 1264 1276
164 166 193 199 204 233 215 293 370 426 358 363 355 345 323 270 226 252 342 291 218 207 223 219 213 213 213 212 215 224 262 298 425 518 517 364 389 276 278 338 375 436 530 529 541 573 505 575 675 739 749 805 804 760 824 936 1063 1173 1212 1244 1041 939 854 877 861 916 1054 1089 1303 1140 1042 1009 905 959 893 851 817 947 963 958 958 969 981 973 968 1006 1072 1095 1035 1143 1207 1268 1387 1460 1569 1361 1660 1485 1277 1507 1506 1206 1466 1404 1324 1572 1635 1617 1529 1418 1167 1260 1350 1335 1403 1414 1450 1476 1411 1417 1410 1424 1394 1455 1539 1563 1560 1632 1823 1646 1610 1600 1661 1666 1664 1741 1699 1706 1684 1698 1710 1724 1715 1656 1590 1490 1449 1454 1449 1454 1501 1535 1586 1645 1713 1843 1842 1928 1836 1729 1692 1660 1627 1576 1529 1511 1490 1477 1501 1517 1525 1567 1580 1728 1561 1533 1546 1533 1481 1468 1432 1401 1372 1360 1362 1342 1308 1274 1278 1293 1303 1321 1316 1316 1340 1361 1368 1383 1394 1396 1375 1370 1389 1391 1404 1407 1392 1399 1425 1437 1452 1445 1452 1476 1452 1446 1408 1385 1382 1384 1370 1362 1360 1349 1331 1306 1305 1300 1299 1297 1387 1434 1402 1360 1425 1348 1303 1395 1329 1235
167 235 286 204 213 256 228 289 312 418 520 521 419 373 343 281 281 351 269 262 278 211 236 367 360 301 272 302 408 505 414 262 260 442 507 422 401 401 395 355 370 373 378 388 415 457 489 545 574 503 550 609 683 754 811 972 1072 1274 1392 1293 1098 1061 1034 1112 1053 1084 1252 1126 1101 1121 1139 998 928 699 871 918 927 904 904 901 900 918 976 1007 1026 1093 1133 1060 980 1053 1080 1229 1249 1333 1375 1445 1549 1454 1503 1515 1386 1491 1620 1536 1354 1617 1554 1577 1439 1204 1169 1310 1389 1383 1419 1469 1500 1562 1509 1494 1476 1440 1472 1478 1522 1559 1717 1673 1648 1679 1584 1656 1662 1661 1683 1679 1655 1654 1649 1664 1680 1678 1688 1601 1603 1519 1478 1466 1454 1481 1466 1516 1610 1699 1841 1966 2028 2078 1874 1765 1676 1621 1585 1564 1509 1466 1445 1431 1463 1535 1494 1497 1521 1497 1476 1477 1492 1499 1526 1411 1412 1397 1361 1324 1325 1286 1268 1274 1273 1284 1291 1306 1317 1336 1343 1351 1369 1389 1402 1419 1403 1410 1397 1416 1431 1439 1430 1451 1479 1511 1550 1467 1476 1490 1485 1467 1444 1434 1398 1390 1383 1365 1360 1345 1330 1324 1317 1311 1348 1294 1385 1312 1407 1423 1320 1289 1286 1286 1301 1338
248 306 344 304 326 271 284 299 336 494 710 685 574 506 446 346 325 299 295 226 223 216 229 305 465 456 393 404 638 575 415 296 262 262 262 338 353 478 617 587 580 495 504 482 468 462 427 503 566 549 592 571 652 809 863 1027 1206 1393 1454 1400 1288 1252 1272 1171 1094 1065 1039 1071 1100 937 785 747 651 722 815 907 895 855 694 700 730 670 779 749 802 885 822 892 874 933 914 998 945 1089 1226 1148 1258 1537 1390 1478 1575 1517 1584 1565 1536 1397 1142 1110 1137 1093 1108 1318 1423 1435 1471 1504 1569 1600 1568 1527 1575 1587 1498 1561 1571 1571 1577 1642 1647 1658 1567 1575 1617 1628 1666 1665 1649 1626 1619 1627 1633 1629 1624 1578 1603 1521 1494 1459 1485 1503 1503 1544 1619 1736 1848 1953 1962 1928 1890 1748 1640 1574 1551 1489 1468 1435 1431 1415 1401 1392 1407 1409 1408 1413 1413 1417 1426 1435 1556 1455 1405 1385 1362 1363 1299 1267 1274 1286 1281 1275 1289 1301 1322 1334 1355 1375 1375 1390 1399 1400 1417 1434 1432 1427 1448 1474 1488 1497 1501 1512 1532 1518 1509 1518 1517 1513 1506 1456 1427 1415 1394 1372 1359 1344 1341 1332 1332 1330 1329 1485 1355 1328 1354 1427 1473 1420 1292 1288 1288 1282
388 399 424 448 419 360 320 299 338 406 589 749 666 615 530 420 399 359 315 254 257 253 233 366 486 592 531 540 586 445 354 348 370 305 262 262 283 329 367 458 700 670 690 598 550 545 536 443 529 684 757 753 715 782 898 989 1084 1189 1280 1309 1413 1357 1339 1149 1050 979 864 855 839 838 848 867 726 567 626 631 602 626 621 691 864 891 763 731 693 654 690 674 710 789 760 763 748 819 969 921 985 1031 1150 1176 1119 1233 1202 1406 1115 1043 916 881 883 898 907 1135 1356 1490 1509 1539 1572 1640 1669 1604 1609 1661 1598 1664 1675 1639 1664 1689 1653 1605 1566 1548 1570 1612 1657 1637 1631 1597 1584 1594 1586 1589 1572 1536 1518 1508 1469 1465 1443 1474 1468 1534 1600 1702 1808 1804 1889 1884 1811 1688 1599 1555 1480 1456 1422 1418 1394 1395 1378 1363 1355 1351 1345 1370 1374 1384 1363 1383 1457 1438 1410 1388 1359 1340 1277 1263 1270 1284 1304 1285 1307 1309 1329 1345 1353 1371 1404 1428 1437 1432 1430 1441 1455 1456 1483 1496 1509 1517 1534 1545 1539 1534 1539 1536 1555 1553 1515 1487 1469 1452 1411 1396 1377 1369 1360 1347 1356 1351 1345 1350 1546 1412 1436 1323 1300 1301 1297 1293 1287 1288
319 519 547 591 558 417 433 400 390 407 527 772 734 616 526 561 410 359 306 308 283 263 278 374 462 591 658 580 508 488 519 449 494 455 347 265 262 262 273 369 475 501 521 696 718 806 681 557 494 611 722 727 705 750 923 1005 946 963 1100 1247 1296 1425 1340 1255 1116 1012 996 832 725 646 652 758 596 522 579 625 668 665 665 771 854 922 853 863 844 803 834 778 783 717 717 769 734 719 730 759 799 849 930 927 861 839 895 903 923 890 960 1238 1281 1070 919 919 1172 1435 1535 1589 1625 1669 1725 1709 1697 1830 1752 1739 1789 1767 1736 1716 1671 1624 1548 1534 1532 1588 1639 1597 1613 1579 1569 1557 1549 1542 1520 1486 1469 1456 1428 1430 1435 1446 1451 1495 1521 1569 1623 1663 1736 1705 1704 1578 1517 1480 1446 1433 1410 1400 1391 1381 1378 1372 1363 1351 1347 1348 1356 1369 1365 1397 1436 1437 1415 1390 1364 1307 1267 1267 1267 1275 1286 1312 1317 1338 1347 1357 1370 1410 1416 1430 1444 1451 1470 1490 1484 1501 1520 1610 1552 1610 1576 1555 1563 1568 1567 1571 1596 1592 1560 1545 1511 1473 1460 1431 1405 1392 1384 1362 1378 1370 1350 1352 1359 1481 1432 1303 1315 1307 1301 1299 1296 1293
437 466 642 659 621 533 594 543 562 470 529 649 831 769 598 419 385 388 494 469 364 290 246 302 401 482 536 681 660 625 592 627 521 387 327 363 341 262 262 300 337 477 526 771 688 553 579 750 554 467 591 701 731 984 994 879 842 873 1060 1149 1305 1384 1216 1135 1013 914 788 769 701 635 737 602 589 732 860 722 831 889 789 874 1019 1005 1018 968 1041 961 945 980 995 861 925 1033 863 768 774 733 742 777 761 758 813 880 1039 944 894 1067 1312 1406 1507 1402 1000 928 1134 1367 1534 1578 1607 1641 1703 1772 1815 1876 1779 1920 1870 1809 1745 1686 1657 1617 1588 1514 1528 1571 1581 1590 1568 1563 1570 1540 1525 1478 1450 1432 1426 1433 1420 1406 1415 1415 1442 1438 1483 1525 1582 1569 1585 1609 1626 1585 1528 1488 1457 1437 1428 1407 1432 1409 1374 1363 1358 1352 1350 1346 1341 1348 1388 1412 1428 1443 1401 1345 1317 1290 1266 1268 1269 1276 1298 1322 1341 1357 1382 1390 1376 1397 1412 1424 1435 1446 1498 1504 1524 1521 1526 1539 1568 1592 1623 1613 1582 1596 1578 1581 1608 1653 1599 1566 1536 1513 1471 1442 1426 1418 1416 1412 1387 1400 1375 1372 1366 1356 1337 1326 1314 1312 1310 1305 1305 1300
482 650 648 726 732 684 700 636 689 680 616 733 858 697 562 577 557 545 471 420 336 304 268 262 365 347 450 644 773 743 672 541 501 507 515 453 386 359 262 262 358 368 487 499 599 518 383 428 565 666 475 579 801 827 697 745 779 865 934 1089 1375 1442 1357 1073 935 918 845 820 705 647 489 611 856 860 852 881 956 959 1030 1103 1238 1231 1315 1142 1299 1316 1200 1378 1317 1122 1269 1416 1121 1172 957 926 910 840 902 1063 981 984 965 846 998 1234 1473 1532 1535 1534 1183 934 978 1310 1450 1494 1543 1585 1619 1710 1818 1975 1966 1976 1919 1806 1748 1690 1643 1618 1570 1500 1528 1549 1518 1523 1515 1515 1553 1560 1523 1445 1418 1414 1433 1450 1400 1400 1400 1398 1409 1431 1459 1484 1504 1530 1566 1579 1602 1559 1527 1499 1466 1443 1414 1386 1413 1405 1387 1363 1347 1349 1347 1348 1342 1338 1344 1359 1367 1356 1333 1306 1277 1272 1271 1267 1274 1271 1291 1324 1350 1366 1374 1430 1398 1421 1436 1442 1438 1457 1486 1523 1544 1568 1547 1571 1584 1607 1620 1633 1634 1652 1619 1688 1656 1631 1594 1579 1549 1541 1526 1493 1461 1449 1437 1429 1421 1409 1402 1384 1368 1360 1349 1328 1325 1325 1316 1318 1330 1327
625 547 534 566 566 683 722 724 767 829 815 849 796 752 738 796 741 582 479 427 382 313 346 297 298 376 438 527 580 624 788 652 766 731 639 575 530 485 447 342 260 262 259 384 384 363 358 646 718 576 711 652 578 611 636 654 702 842 863 1120 1170 1292 1398 1145 1108 933 914 801 707 612 456 682 847 845 857 981 1021 1052 1098 1196 1489 1454 1473 1244 1493 1451 1372 1534 1438 1412 1451 1496 1426 1282 1220 1327 1157 949 1249 1454 1291 1523 1357 1220 906 1112 1399 1576 1624 1537 1478 990 918 1141 1403 1499 1568 1663 1758 1755 1785 1884 1967 1875 1850 1777 1734 1674 1626 1577 1552 1495 1468 1497 1495 1498 1476 1474 1463 1506 1539 1499 1404 1498 1497 1498 1390 1389 1391 1390 1401 1428 1443 1476 1483 1492 1526 1550 1577 1590 1516 1511 1460 1425 1402 1394 1405 1384 1364 1351 1352 1346 1343 1337 1339 1338 1338 1334 1329 1324 1373 1279 1273 1273 1273 1267 1266 1273 1281 1298 1318 1347 1373 1383 1407 1423 1441 1453 1471 1494 1527 1556 1621 1581 1597 1610 1641 1639 1640 1657 1674 1670 1662 1675 1658 1679 1639 1619 1600 1594 1555 1537 1500 1493 1476 1452 1434 1429 1441 1402 1385 1369 1342 1350 1343 1343 1338 1346 1341 1341
443 455 443 505 733 732 766 767 824 844 909 932 981 978 849 739 673 594 551 466 476 418 314 369 399 299 362 409 459 689 879 745 705 612 519 456 494 472 469 268 374 341 360 369 262 259 429 532 474 575 666 768 802 762 818 917 973 1013 983 861 962 1020 1196 1267 1124 1023 982 922 854 720 550 443 826 845 825 853 890 937 1085 1229 1308 1607 1476 1468 1548 1347 1367 1285 1329 1404 1509 1551 1531 1453 1441 1513 1379 1085 1318 1514 1520 1660 1550 1269 1021 1073 1372 1541 1607 1576 1413 1155 963 1002 1381 1405 1480 1534 1605 1684 1739 1834 1940 1894 1846 1775 1728 1675 1630 1595 1549 1507 1456 1441 1457 1452 1422 1439 1452 1455 1461 1512 1401 1467 1502 1443 1386 1384 1380 1388 1384 1404 1411 1445 1470 1487 1495 1495 1553 1550 1518 1492 1461 1438 1423 1395 1428 1378 1362 1340 1344 1340 1335 1330 1331 1329 1331 1324 1326 1322 1316 1303 1280 1274 1269 1275 1269 1284 1280 1295 1310 1334 1357 1379 1385 1423 1450 1464 1485 1517 1549 1591 1609 1628 1666 1676 1664 1671 1689 1695 1709 1702 1682 1720 1700 1698 1669 1671 1643 1605 1591 1554 1538 1499 1504 1490 1467 1469 1444 1415 1403 1377 1366 1367 1361 1343 1364 1362 1351 1337
264 295 446 504 663 634 749 737 756 749 783 856 984 937 872 747 695 660 581 593 482 387 366 377 347 442 408 379 495 656 725 775 759 642 526 596 564 417 457 432 447 468 348 426 351 257 396 391 557 592 624 767 913 991 1112 1087 1175 1232 1156 1223 1069 1131 1125 1156 1161 1148 1065 907 751 581 499 427 672 815 860 856 898 974 1102 1117 1271 1583 1589 1472 1438 1231 1276 1395 1368 1370 1442 1476 1644 1459 1480 1655 1460 1164 1338 1445 1495 1678 1489 1414 1149 964 1025 1093 1143 1213 1301 1253 1158 1220 1443 1456 1459 1541 1577 1638 1701 1776 1835 1852 1810 1762 1738 1699 1644 1605 1569 1529 1496 1424 1424 1424 1424 1424 1424 1424 1462 1437 1425 1396 1424 1420 1377 1374 1374 1380 1378 1383 1401 1415 1424 1438 1457 1457 1553 1516 1481 1463 1429 1418 1409 1394 1381 1445 1356 1334 1339 1339 1331 1328 1328 1322 1322 1322 1312 1311 1307 1286 1276 1275 1270 1275 1270 1288 1288 1285 1296 1323 1352 1367 1402 1425 1441 1464 1519 1533 1577 1618 1629 1651 1702 1730 1725 1701 1708 1720 1736 1732 1755 1745 1735 1738 1692 1679 1657 1633 1626 1556 1555 1563 1534 1508 1506 1473 1456 1436 1416 1407 1390 1369 1393 1392 1384 1336 1321 1299
305 336 389 463 499 583 720 693 738 680 687 775 846 854 791 792 733 719 729 585 526 438 576 527 519 452 471 338 445 609 753 717 638 619 757 654 426 503 467 674 571 572 508 422 414 261 332 400 484 568 593 758 1007 1034 914 912 1047 1065 1030 1032 1274 962 957 975 1017 923 942 970 878 707 598 497 670 800 803 820 883 1027 1225 1207 1365 1377 1402 1293 1185 989 1295 1475 1470 1539 1586 1609 1622 1677 1473 1392 1268 1281 1550 1556 1602 1684 1498 1430 1387 1377 1279 1317 1219 1092 1345 1301 1205 1208 1450 1479 1543 1569 1601 1659 1717 1767 1801 1789 1759 1735 1739 1693 1676 1622 1577 1543 1500 1488 1541 1659 1628 1520 1470 1427 1450 1439 1402 1369 1370 1367 1367 1372 1371 1375 1375 1378 1423 1443 1468 1456 1446 1491 1489 1482 1503 1447 1414 1401 1378 1371 1370 1474 1338 1338 1338 1338 1331 1343 1439 1327 1310 1310 1309 1300 1282 1280 1272 1270 1275 1272 1270 1274 1282 1321 1322 1342 1357 1369 1389 1398 1430 1600 1549 1559 1574 1590 1613 1657 1711 1745 1729 1725 1732 1741 1755 1764 1759 1815 1745 1732 1714 1697 1664 1638 1624 1614 1595 1567 1551 1531 1516 1506 1479 1464 1440 1421 1410 1407 1420 1399 1371 1352 1333 1332
378 414 438 480 544 583 716 747 742 652 509 586 704 707 729 768 847 829 684 736 667 621 751 662 586 525 522 421 433 600 811 811 805 773 713 755 830 520 572 699 701 607 586 481 460 426 342 295 278 468 501 816 917 931 856 728 787 768 868 1127 1128 1014 846 725 863 841 776 864 765 691 553 428 769 764 786 815 869 950 1068 1028 990 1029 969 910 913 1100 1409 1422 1414 1378 1423 1559 1494 1684 1574 1354 1443 1556 1701 1643 1475 1501 1567 1553 1572 1505 1464 1524 1517 1369 1264 1361 1332 1341 1486 1488 1556 1582 1598 1654 1693 1725 1834 1809 1733 1722 1727 1682 1637 1614 1595 1550 1500 1574 1804 1981 1959 1747 1518 1433 1413 1400 1378 1363 1366 1366 1366 1368 1370 1370 1374 1376 1401 1439 1517 1563 1553 1532 1513 1477 1439 1413 1406 1367 1352 1358 1336 1335 1377 1328 1333 1329 1340 1327 1324 1309 1304 1303 1300 1291 1275 1271 1271 1275 1277 1275 1272 1278 1290 1298 1344 1359 1368 1389 1401 1480 1463 1508 1526 1533 1617 1587 1628 1683 1733 1770 1746 1755 1747 1840 1785 1792 1802 1781 1758 1750 1725 1706 1713 1661 1660 1636 1613 1586 1594 1545 1524 1524 1509 1488 1464 1447 1445 1447 1439 1423 1415 1377 1372 1385
414 420 564 587 548 658 607 594 572 516 405 524 538 601 638 707 715 736 818 835 728 771 715 644 625 647 620 672 564 417 471 717 728 815 867 826 834 686 714 794 756 824 749 577 513 427 413 328 364 355 287 364 437 587 696 562 624 732 781 1010 1108 906 905 918 741 613 706 598 540 424 410 521 750 774 796 836 948 963 940 896 917 893 792 884 930 1097 1151 1063 1013 1112 1166 1175 1399 1510 1683 1608 1687 1519 1358 1324 1257 1220 1228 1292 1293 1444 1549 1605 1619 1499 1453 1420 1288 1342 1501 1581 1623 1624 1610 1629 1653 1680 1736 1714 1699 1714 1685 1653 1635 1597 1551 1552 1518 1489 1610 1785 1726 1568 1453 1407 1384 1380 1366 1363 1364 1359 1365 1354 1364 1362 1370 1375 1472 1527 1625 1631 1664 1643 1623 1540 1464 1382 1379 1371 1338 1336 1323 1322 1321 1305 1308 1313 1362 1502 1306 1297 1298 1304 1310 1276 1271 1274 1280 1278 1277 1275 1289 1289 1308 1320 1328 1354 1376 1395 1429 1443 1449 1467 1477 1499 1546 1577 1600 1658 1767 1756 1824 1777 1779 1793 1798 1819 1822 1847 1783 1768 1861 1749 1723 1686 1674 1673 1632 1628 1606 1590 1579 1564 1529 1514 1496 1488 1491 1477 1446 1439 1432 1398 1390 1395
249 317 337 449 492 531 423 441 501 428 386 470 536 612 657 740 645 624 751 775 796 736 724 729 789 790 774 707 602 575 851 860 882 910 1049 1055 828 1009 892 1115 1058 860 808 657 572 530 501 456 522 472 429 401 323 457 529 546 776 736 762 973 847 768 678 907 721 523 529 500 538 652 711 766 776 776 839 874 985 1044 888 685 907 855 673 767 852 866 829 883 912 986 958 1048 1185 1154 1376 1212 1249 1240 1137 1097 1047 1145 1120 1229 1445 1459 1511 1634 1722 1569 1441 1379 1373 1435 1512 1584 1640 1749 1659 1637 1650 1680 1693 1704 1698 1712 1678 1647 1635 1590 1543 1532 1496 1484 1456 1457 1489 1441 1409 1386 1374 1377 1379 1367 1355 1355 1355 1355 1355 1358 1359 1372 1464 1521 1679 1797 1813 1753 1663 1569 1468 1492 1366 1356 1348 1332 1330 1316 1309 1309 1305 1298 1297 1298 1297 1293 1292 1303 1332 1283 1274 1283 1281 1276 1278 1271 1292 1292 1310 1325 1355 1366 1374 1395 1417 1427 1431 1458 1469 1471 1549 1564 1657 1638 1730 1763 1771 1786 1801 1813 1892 1847 1840 1816 1817 1795 1801 1762 1744 1722 1688 1718 1673 1678 1651 1616 1595 1558 1547 1539 1524 1513 1495 1470 1464 1444 1421 1419 1412 1413
217 229 258 259 522 579 341 344 437 323 370 483 592 796 759 673 585 568 707 756 836 781 826 887 893 917 878 737 669 790 929 1036 1052 1210 1247 1275 1148 1054 1201 1292 1013 937 835 618 610 591 490 562 892 618 577 521 386 338 503 462 541 530 736 781 985 811 621 552 593 456 536 710 715 718 729 744 785 888 970 1014 946 957 981 654 650 568 575 592 588 702 698 791 823 891 857 910 949 1001 1065 1010 1029 1000 948 1036 1215 1542 1340 1171 1421 1546 1578 1610 1723 1600 1447 1396 1423 1490 1559 1577 1612 1609 1613 1658 1677 1693 1705 1721 1727 1699 1730 1695 1631 1587 1548 1531 1504 1481 1482 1467 1478 1460 1419 1374 1365 1367 1355 1355 1355 1355 1355 1370 1367 1363 1361 1370 1408 1516 1686 1755 1796 1732 1659 1543 1494 1421 1351 1345 1336 1328 1322 1309 1308 1299 1295 1293 1289 1293 1280 1285 1282 1296 1285 1273 1280 1281 1279 1278 1273 1276 1290 1299 1313 1326 1345 1371 1378 1409 1406 1410 1436 1454 1475 1497 1521 1562 1584 1597 1763 1750 1786 1811 1823 1848 1876 1893 1888 1830 1847 1851 1843 1820 1810 1749 1758 1745 1721 1705 1655 1628 1599 1603 1574 1566 1546 1527 1507 1484 1470 1453 1448 1443 1435 1426
212 385 235 245 229 247 251 240 329 263 351 504 628 658 615 483 411 492 712 689 771 797 798 927 1001 990 922 884 930 866 1025 1061 1179 1172 891 966 1272 1104 1086 1053 1048 1132 862 778 624 740 660 726 988 904 769 595 485 444 371 335 504 625 620 615 760 777 687 460 375 621 680 647 698 768 833 841 893 1027 1070 805 751 724 656 593 596 772 870 798 805 685 678 658 631 685 706 745 814 761 928 936 941 873 1024 1114 1244 1324 1616 1415 1420 1522 1472 1593 1647 1625 1469 1435 1459 1531 1618 1584 1670 1652 1649 1672 1694 1716 1737 1771 1770 1737 1705 1682 1657 1634 1592 1624 1722 1621 1600 1560 1477 1435 1404 1369 1355 1355 1355 1355 1355 1355 1359 1373 1397 1385 1388 1381 1432 1478 1569 1624 1641 1629 1592 1505 1453 1406 1355 1329 1325 1320 1315 1304 1304 1298 1305 1300 1299 1295 1298 1291 1289 1280 1268 1276 1281 1284 1286 1280 1273 1279 1289 1300 1314 1327 1341 1362 1382 1420 1428 1441 1450 1461 1480 1500 1548 1573 1595 1652 1728 1763 1795 1832 1848 1883 1909 1939 1985 1885 1892 1892 1865 1871 1846 1807 1785 1757 1712 1678 1725 1639 1651 1613 1598 1563 1550 1528 1503 1485 1484 1474 1463 1456 1447 1438
230 268 413 271 246 257 242 241 241 350 360 442 547 402 398 345 347 468 524 725 664 645 757 877 1031 1068 1025 1056 1145 1111 982 866 913 886 786 1040 982 1092 1180 975 786 1020 1033 865 841 979 942 932 1018 906 898 718 659 654 493 548 303 366 419 605 719 581 480 379 567 664 660 598 805 945 1025 1077 1022 1162 977 677 595 528 546 713 697 862 1030 1162 962 787 930 835 741 744 738 673 707 873 954 1108 1128 1194 931 1099 1277 1246 1371 1575 1691 1731 1631 1619 1756 1572 1460 1533 1507 1554 1645 1677 1703 1701 1671 1683 1713 1749 1775 1814 1818 1783 1733 1687 1655 1625 1603 1577 1591 1579 1530 1480 1451 1422 1399 1365 1355 1355 1355 1355 1355 1369 1370 1390 1440 1420 1405 1422 1446 1467 1499 1559 1518 1502 1467 1436 1426 1397 1363 1327 1307 1306 1312 1309 1307 1304 1305 1303 1308 1301 1293 1290 1285 1279 1274 1291 1284 1283 1284 1272 1282 1282 1292 1301 1307 1343 1342 1357 1380 1388 1405 1435 1440 1466 1495 1512 1544 1574 1617 1671 1752 1796 1984 1918 1879 1996 1978 1987 1971 1972 1995 1925 1914 2021 1827 1816 1764 1777 1720 1716 1692 1704 1666 1637 1615 1610 1563 1529 1519 1506 1501 1492 1471 1465 1454 1459
218 261 342 323 322 312 379 267 253 241 247 261 321 286 349 523 495 450 510 510 574 634 751 911 1051 1022 926 957 1068 1060 991 940 781 726 615 759 825 1002 1010 821 744 907 973 1091 1098 1246 1227 1182 1052 976 881 740 773 725 624 517 308 535 598 608 619 366 586 613 652 672 638 564 673 745 813 935 865 852 714 543 558 688 731 804 840 833 891 1053 1006 973 1012 904 907 797 884 925 741 826 942 1238 1317 1403 1277 972 994 1008 1116 1424 1534 1631 1797 1742 1777 1610 1509 1495 1570 1625 1698 1702 1747 1723 1677 1696 1725 1770 1784 1831 1780 1729 1714 1679 1645 1625 1621 1602 1582 1558 1542 1493 1478 1429 1401 1364 1355 1355 1355 1355 1355 1355 1374 1422 1535 1451 1438 1438 1435 1485 1509 1504 1473 1430 1410 1396 1392 1367 1349 1331 1320 1307 1308 1306 1306 1305 1305 1302 1301 1292 1287 1286 1286 1281 1291 1292 1285 1287 1275 1278 1280 1285 1293 1305 1310 1317 1335 1331 1353 1362 1379 1413 1444 1466 1469 1554 1574 1584 1620 1688 1829 1957 2065 2120 2151 2168 2113 2074 2068 2071 2066 2081 2066 2030 1947 1869 1820 1768 1769 1779 1747 1734 1674 1698 1679 1657 1606 1554 1547 1526 1515 1496 1491 1484 1492 1481
218 255 252 285 336 414 393 389 339 262 241 251 406 361 351 534 603 553 561 664 647 672 678 818 911 891 930 1072 1078 1031 993 878 690 764 723 769 859 896 788 783 655 921 1000 1243 1326 1320 1252 1167 1078 830 675 586 571 647 430 435 312 480 544 600 434 500 474 427 513 576 508 562 553 637 724 729 621 594 493 532 765 872 867 1019 1007 956 1052 1136 1281 1109 1128 1193 1028 925 1011 936 790 826 1018 1062 1237 1538 1361 1191 1112 1409 1230 1090 1386 1497 1606 1702 1892 1761 1602 1604 1615 1681 1657 1667 1670 1673 1670 1680 1719 1738 1765 1815 1962 1795 1713 1682 1646 1626 1602 1582 1576 1570 1565 1517 1489 1428 1386 1372 1362 1355 1409 1417 1355 1378 1401 1502 1529 1463 1456 1443 1450 1528 1583 1528 1416 1394 1371 1373 1377 1354 1334 1305 1310 1312 1312 1308 1307 1315 1284 1297 1282 1290 1294 1294 1296 1293 1289 1286 1287 1278 1277 1280 1280 1288 1292 1308 1310 1324 1329 1339 1352 1356 1382 1387 1449 1495 1528 1571 1615 1618 1672 1778 1925 2059 2110 2144 2123 2134 2155 2200 2179 2136 2091 2154 2133 2092 1930 1874 1875 1852 1848 1833 1799 1761 1724 1701 1673 1624 1591 1598 1571 1551 1525 1510 1511 1507 1495 1477
245 226 309 387 330 357 357 481 315 380 294 253 263 476 467 403 416 426 394 473 485 534 751 743 705 800 836 916 1071 1153 1138 1027 944 745 663 585 742 785 759 613 777 837 981 1053 1024 1087 1202 1141 1058 825 849 827 633 443 537 485 315 467 431 433 416 449 478 499 553 487 513 494 448 474 488 452 444 533 598 688 809 955 1057 1118 1252 1266 1341 1551 1570 1358 1518 1339 1188 992 1037 1187 832 795 991 1039 1249 1650 1531 1320 1246 1304 1532 1369 1221 1319 1455 1470 1547 1602 1647 1641 1695 1701 1651 1651 1651 1651 1651 1663 1684 1730 1771 1798 1789 1737 1702 1658 1626 1608 1594 1589 1593 1613 1579 1627 1577 1436 1393 1365 1362 1417 1457 1488 1475 1410 1382 1382 1443 1418 1411 1438 1466 1528 1657 1479 1387 1366 1350 1342 1342 1343 1313 1308 1310 1311 1315 1315 1305 1295 1298 1296 1298 1301 1297 1297 1293 1294 1292 1288 1282 1275 1284 1280 1282 1285 1289 1303 1309 1319 1324 1337 1383 1405 1418 1439 1469 1514 1558 1606 1648 1707 1774 1873 1936 1985 2029 2085 2152 2207 2228 2206 2186 2198 2191 2178 2213 2118 2117 2000 1891 1870 1870 1850 1808 1785 1753 1699 1671 1655 1630 1602 1577 1558 1540 1533 1520 1504 1488 1477
285 238 235 286 321 303 415 468 430 383 338 282 272 265 306 475 639 562 631 511 554 665 749 786 759 873 988 1083 1023 1017 996 973 778 779 643 536 609 790 793 608 694 757 844 856 879 1091 1158 1180 1141 965 1061 812 569 494 721 587 322 329 340 356 343 340 348 359 368 373 373 389 487 511 616 818 922 843 699 889 885 1045 1082 1162 1251 1164 1190 1229 1316 1234 1391 1465 1465 1323 1039 1421 1069 902 917 1049 1352 1775 1591 1521 1582 1404 1556 1671 1559 1533 1477 1619 1695 1688 1722 1683 1650 1657 1651 1651 1651 1651 1651 1686 1720 1735 1750 1762 1752 1710 1680 1654 1640 1642 1617 1599 1591 1622 1585 1548 1517 1493 1409 1371 1361 1419 1458 1601 1488 1411 1348 1351 1353 1369 1375 1394 1404 1435 1441 1410 1380 1351 1335 1320 1316 1316 1316 1311 1311 1317 1308 1301 1303 1302 1302 1306 1298 1299 1300 1300 1294 1295 1292 1290 1279 1282 1285 1284 1282 1288 1291 1298 1303 1324 1366 1388 1405 1423 1436 1461 1490 1531 1582 1641 1682 1729 1786 1844 1895 1944 2085 2093 2137 2258 2281 2284 2240 2258 2135 2120 2155 2180 2073 2011 1977 1925 1886 1837 1815 1796 1771 1737 1695 1647 1638 1592 1583 1553 1554 1538 1532 1510 1508 1496
328 273 268 405 420 404 408 393 507 437 436 317 328 296 270 338 420 490 536 593 628 794 894 940 914 978 885 900 800 757 823 906 929 793 683 563 595 715 636 488 515 531 726 789 757 970 1033 1086 1206 986 766 681 599 608 787 638 671 487 427 375 405 451 407 360 364 367 393 492 467 497 615 691 610 681 790 927 1086 1050 980 973 1010 945 1044 1054 1059 1151 1369 1591 1504 1225 1174 1190 1003 1001 971 1045 1316 1644 1719 1663 1607 1560 1580 1647 1703 1629 1583 1585 1721 1788 1735 1681 1651 1651 1651 1651 1651 1651 1678 1719 1754 1788 1796 1784 1769 1737 1751 1711 1676 1670 1644 1628 1583 1586 1547 1522 1491 1473 1445 1394 1391 1447 1473 1499 1442 1346 1321 1339 1347 1342 1339 1359 1367 1370 1339 1349 1354 1331 1319 1317 1321 1318 1313 1312 1313 1306 1303 1312 1310 1311 1310 1307 1305 1306 1304 1299 1296 1296 1291 1290 1277 1283 1283 1288 1286 1295 1299 1302 1309 1315 1357 1371 1394 1417 1440 1460 1499 1511 1673 1667 1712 1735 1779 1829 1868 1946 2006 2043 2092 2106 2109 2107 2157 2063 2032 2015 1968 2144 2092 2067 2042 1949 1868 1847 1827 1790 1769 1746 1711 1671 1638 1624 1588 1585 1549 1553 1559 1538 1523 1497
331 269 240 278 284 334 382 375 456 529 447 367 379 326 382 364 282 373 484 525 587 786 972 996 990 943 885 785 734 670 663 768 796 710 541 463 509 492 580 552 697 596 616 651 704 792 936 989 1142 914 998 1030 764 919 738 919 842 647 420 596 788 617 715 544 743 518 378 410 411 411 496 494 469 493 459 491 572 772 886 809 861 815 871 908 996 1091 1119 1271 1594 1407 1534 1197 1372 1189 1014 911 1022 1251 1439 1475 1614 1685 1713 1762 1810 1727 1820 1781 1798 1812 1745 1699 1651 1651 1651 1651 1651 1673 1719 1775 1820 1855 1859 1841 1806 1813 1799 1732 1681 1649 1655 1608 1604 1600 1509 1514 1459 1440 1429 1411 1383 1404 1434 1426 1368 1318 1334 1334 1328 1338 1331 1328 1338 1340 1331 1328 1323 1323 1322 1323 1319 1315 1317 1311 1303 1329 1357 1440 1354 1318 1311 1311 1308 1303 1299 1300 1297 1295 1291 1284 1281 1284 1287 1289 1289 1289 1299 1299 1313 1306 1344 1354 1380 1411 1443 1501 1504 1532 1601 1724 1739 1769 1791 1833 1892 1928 1966 1955 1930 1930 1944 2021 1965 1946 1946 1946 1952 2144 2151 2151 2128 1976 1918 1904 1814 1779 1767 1746 1712 1696 1677 1656 1628 1612 1598 1589 1549 1529 1523 1494
351 338 259 300 427 427 499 528 484 536 502 474 525 488 528 367 282 467 709 771 726 760 695 800 744 847 900 843 700 590 539 656 732 584 507 680 735 599 583 817 634 867 664 682 769 831 948 1037 1131 1144 1260 1041 891 961 1021 1007 886 605 737 947 841 831 821 810 882 828 579 376 392 535 737 897 892 802 680 727 692 675 578 530 583 672 747 815 817 904 891 1023 1249 1555 1541 1304 1426 1640 1421 1146 912 951 997 1133 1325 1650 1694 1698 1736 1753 1707 1717 1744 1777 1767 1729 1681 1651 1651 1651 1649 1706 1751 1808 1887 1938 1970 2001 1851 1855 1830 1761 1719 1685 1637 1629 1615 1557 1510 1460 1443 1435 1419 1399 1393 1354 1350 1340 1331 1329 1335 1331 1377 1339 1328 1326 1326 1325 1326 1325 1322 1321 1323 1322 1320 1322 1311 1310 1309 1360 1426 1429 1358 1322 1311 1313 1306 1302 1299 1294 1299 1295 1289 1285 1282 1281 1288 1292 1292 1291 1300 1296 1300 1339 1353 1378 1382 1420 1459 1487 1531 1569 1585 1632 1707 1748 1787 1815 1850 1905 1994 1930 1930 1930 1943 1999 2059 1946 1946 1946 1958 2004 2120 2129 2105 2002 1931 1901 1847 1822 1788 1757 1700 1658 1673 1652 1624 1594 1579 1553 1542 1525 1511 1498
436 345 267 362 409 453 452 662 677 647 562 599 576 581 502 416 285 381 565 786 689 587 582 566 571 661 755 675 491 588 477 519 481 470 516 569 757 766 761 662 893 818 1004 786 739 865 921 997 1106 1182 1329 1189 1137 1198 946 918 814 670 711 818 1072 989 845 1050 879 730 697 541 376 567 695 704 801 787 965 1109 1068 846 761 748 645 627 590 659 664 721 788 888 1056 1300 1647 1528 1400 1706 1593 1512 1359 1175 946 933 981 1173 1502 1615 1635 1638 1579 1727 1693 1638 1683 1715 1701 1670 1651 1651 1699 1748 1787 1873 1958 2030 2074 2054 2002 1941 1904 1865 1768 1722 1675 1607 1567 1536 1487 1448 1421 1404 1385 1384 1374 1359 1348 1363 1338 1332 1321 1325 1329 1339 1328 1325 1326 1325 1325 1320 1326 1324 1320 1318 1318 1312 1312 1305 1307 1336 1371 1441 1353 1316 1312 1311 1307 1304 1301 1298 1299 1293 1286 1284 1276 1285 1290 1289 1296 1298 1299 1311 1319 1324 1346 1369 1405 1436 1463 1495 1535 1528 1574 1633 1704 1757 1775 1812 1849 1883 1937 1948 1927 1930 1930 2042 1950 1990 2003 1976 2039 2044 2110 2168 2125 2019 1940 1914 1855 1816 1767 1723 1697 1680 1635 1624 1610 1603 1590 1564 1538 1546 1544 1518
332 290 265 290 412 474 514 689 931 780 777 816 689 538 468 499 447 288 394 531 442 490 359 331 331 420 400 351 353 361 389 499 521 731 644 652 635 873 886 879 848 995 955 973 850 904 965 992 1145 1133 1218 1347 1322 1164 1228 962 906 1011 1015 970 1013 894 783 851 897 822 650 614 465 454 461 442 446 538 691 796 1113 1313 1148 967 862 785 833 789 665 611 647 794 878 1081 1238 1364 1600 1693 1643 1617 1681 1514 1400 1202 1021 968 1039 1173 1138 1026 1065 1266 1409 1407 1536 1675 1651 1651 1673 1678 1697 1748 1813 1883 1987 2059 2125 2133 2100 2018 1938 1857 1781 1704 1658 1589 1554 1502 1479 1447 1428 1401 1388 1369 1359 1352 1349 1364 1360 1342 1332 1327 1331 1332 1327 1321 1321 1325 1327 1321 1323 1318 1319 1315 1315 1315 1305 1335 1376 1398 1369 1387 1328 1308 1311 1310 1305 1303 1300 1296 1293 1292 1288 1284 1284 1288 1287 1287 1293 1297 1302 1313 1325 1334 1351 1367 1371 1408 1439 1488 1529 1558 1595 1638 1687 1729 1817 1823 1852 1881 1939 1974 1970 1948 1958 1993 1964 1990 2045 2090 2074 2118 2129 2071 2073 1956 1951 1905 1861 1812 1756 1726 1701 1679 1647 1622 1601 1594 1591 1579 1594 1601 1610 1511
367 378 413 337 321 430 485 629 654 770 723 914 715 639 568 579 513 343 364 302 304 354 386 444 401 453 466 403 368 473 618 779 785 929 892 882 758 742 725 936 940 1002 985 904 903 932 1084 1107 1019 1094 1220 1389 1291 1228 1148 1150 1054 1010 944 780 759 804 870 658 706 751 736 616 450 447 593 788 552 623 490 679 795 1096 1384 1210 1108 1048 945 927 827 732 657 640 735 851 940 1176 1531 1523 1456 1426 1435 1540 1656 1553 1273 1230 1111 1136 1171 1271 1393 1341 1228 1393 1716 1710 1651 1651 1664 1693 1714 1756 1816 1870 1917 1982 2016 2056 2046 1954 1893 1809 1762 1691 1654 1569 1534 1496 1478 1439 1416 1389 1379 1374 1366 1401 1351 1354 1349 1347 1341 1326 1321 1321 1321 1321 1321 1321 1321 1321 1319 1316 1317 1318 1318 1306 1343 1370 1445 1446 1388 1368 1311 1311 1309 1308 1305 1300 1296 1297 1295 1289 1285 1278 1289 1285 1287 1293 1296 1297 1303 1311 1323 1342 1351 1364 1378 1424 1459 1474 1512 1538 1578 1617 1684 1773 1788 1829 1866 1912 1979 2051 2055 2068 2007 2074 2091 2137 2269 2289 2221 2169 2101 2095 2008 2024 1881 1873 1836 1802 1750 1720 1695 1667 1651 1634 1618 1603 1584 1622 1640 1626 1640 1522
499 489 511 437 335 436 466 524 474 506 639 792 667 625 580 517 409 529 489 324 580 606 614 634 566 609 583 491 438 483 606 750 707 942 941 989 1020 963 809 797 862 964 1055 1027 1077 979 1011 1154 1201 1158 1275 1401 1290 1182 959 807 772 705 704 684 712 572 657 573 486 469 466 537 450 450 593 674 780 572 624 575 691 873 1044 1148 1029 996 1023 934 945 893 790 716 675 676 771 880 979 1111 1144 1135 1173 1267 1331 1462 1621 1491 1440 1563 1504 1554 1668 1668 1541 1527 1630 1667 1646 1651 1674 1710 1751 1743 1799 1833 1848 1895 1912 1960 1966 1941 1835 1793 1710 1674 1640 1541 1503 1497 1491 1420 1433 1420 1390 1375 1367 1355 1365 1339 1318 1321 1321 1321 1321 1321 1321 1321 1321 1321 1321 1321 1321 1313 1315 1309 1307 1309 1350 1381 1387 1379 1404 1315 1305 1309 1306 1305 1304 1299 1298 1294 1290 1288 1285 1284 1292 1288 1292 1294 1294 1300 1310 1316 1321 1335 1364 1382 1398 1419 1430 1472 1522 1555 1589 1619 1670 1706 1759 1785 1853 1935 2136 2311 2345 2383 2146 2135 2163 2169 2289 2226 2091 2114 2015 1983 1923 1885 1852 1829 1806 1791 1798 1721 1698 1672 1639 1618 1620 1603 1680 1782 1765 1692 1609 1556
667 591 543 424 486 295 357 341 434 543 768 885 822 794 792 667 661 630 513 359 396 567 682 664 810 762 706 706 569 396 529 566 575 651 715 754 1005 992 1002 917 909 924 1045 1113 1119 1058 1239 1161 1186 1341 1375 1415 1346 1091 1131 981 913 1016 911 986 960 766 704 788 628 606 597 613 450 453 532 612 734 799 760 545 716 792 937 899 876 915 953 989 1020 927 926 815 799 792 689 732 762 948 1165 1413 1438 1214 1225 1381 1446 1500 1648 1693 1603 1613 1785 1754 1658 1713 1842 1757 1673 1665 1752 1833 1722 1738 1768 1813 1862 1824 1809 1841 1825 1824 1789 1741 1690 1624 1568 1522 1488 1467 1456 1449 1448 1442 1405 1378 1343 1330 1347 1326 1325 1324 1324 1321 1321 1321 1321 1321 1321 1321 1321 1321 1321 1343 1461 1392 1325 1314 1313 1333 1380 1375 1317 1309 1300 1305 1306 1303 1301 1297 1287 1287 1282 1288 1289 1289 1289 1288 1295 1298 1299 1304 1310 1317 1320 1345 1366 1381 1406 1430 1453 1474 1502 1542 1570 1600 1649 1681 1709 1767 1978 2027 2002 2023 2177 2164 2227 2275 2162 2171 2080 2095 2030 2013 1963 1933 1911 1973 1865 1819 1802 1775 1741 1735 1701 1660 1653 1629 1608 1577 1708 1909 1881 1756 1621 1616
740 630 598 571 572 548 306 487 542 626 633 829 959 930 935 838 644 558 480 442 383 331 397 496 558 772 804 760 513 592 595 531 512 567 500 573 687 923 889 981 1089 1070 1082 1158 1232 1227 1271 1347 1414 1448 1452 1476 1383 1412 1251 1221 1247 1364 1153 1044 1027 827 819 727 721 699 629 550 464 450 593 754 902 923 731 609 660 593 622 774 781 804 902 1020 1161 1282 1074 973 889 827 861 705 745 808 919 1208 1679 1515 1472 1330 1463 1524 1571 1724 1732 1719 1753 1881 1703 1756 1928 1777 1752 1825 1949 1865 1760 1698 1706 1731 1710 1729 1740 1754 1729 1697 1675 1648 1614 1572 1598 1557 1500 1470 1447 1434 1427 1427 1405 1378 1338 1328 1321 1325 1325 1325 1325 1328 1321 1321 1321 1321 1321 1321 1321 1321 1321 1321 1327 1339 1319 1315 1314 1336 1384 1347 1305 1305 1301 1302 1302 1300 1292 1285 1292 1295 1296 1291 1291 1290 1290 1295 1294 1298 1308 1311 1321 1330 1340 1358 1379 1392 1415 1431 1436 1467 1498 1521 1549 1567 1592 1661 1693 1715 1794 1802 1840 1967 1996 2078 2037 2094 2058 1998 1968 1996 1979 1961 1907 1891 1883 1891 1850 1816 1778 1766 1752 1720 1678 1666 1651 1623 1609 1595 1571 1631 1627 1599 1577 1695
777 763 708 674 415 391 315 362 423 552 611 589 611 540 781 923 763 721 658 535 473 402 400 375 539 723 747 712 700 687 754 687 743 703 691 664 528 572 660 924 1038 1157 1069 1131 1357 1249 1300 1333 1236 1284 1490 1457 1277 1237 1117 1063 996 1217 1054 988 980 894 874 856 774 669 613 473 459 460 574 622 680 857 791 776 841 814 854 623 745 859 947 1067 1130 1113 1212 1323 1338 1161 941 775 791 825 841 1093 1197 1324 1579 1516 1551 1605 1619 1668 1789 1877 1898 1952 1885 1866 1951 1792 1861 1891 1927 1970 1777 1659 1639 1675 1739 1691 1656 1665 1654 1639 1619 1601 1562 1532 1502 1507 1498 1456 1432 1416 1422 1410 1453 1395 1365 1358 1319 1324 1328 1367 1396 1390 1383 1384 1329 1321 1321 1321 1323 1321 1321 1321 1321 1329 1320 1319 1325 1372 1376 1342 1326 1308 1305 1296 1295 1290 1296 1299 1298 1295 1295 1293 1288 1293 1295 1292 1296 1299 1308 1317 1322 1333 1339 1351 1365 1387 1420 1428 1450 1474 1491 1498 1563 1573 1613 1649 1676 1694 1709 1739 1752 1800 1843 1933 1888 1902 1953 1945 1941 1958 1936 1972 1871 1851 1846 1857 1868 1824 1793 1764 1714 1714 1697 1678 1654 1625 1602 1587 1568 1566 1558 1555 1620 1746
774 690 579 503 588 463 398 514 324 443 418 450 622 773 759 888 906 895 877 706 530 562 496 397 406 573 701 858 785 833 1050 883 1017 947 788 768 666 700 585 809 995 941 977 1168 1168 1123 1019 1279 1402 1415 1267 1256 1423 1131 927 979 820 934 970 718 739 713 663 711 641 513 510 664 459 566 697 739 825 867 983 1031 993 964 861 734 787 643 867 957 989 1042 1259 1563 1762 1433 1118 936 790 778 901 979 1095 1295 1438 1732 1840 1683 1706 1726 1820 1873 1932 2070 1948 1947 1912 1830 1736 1676 1621 1569 1607 1583 1638 1658 1674 1687 1769 1784 1772 1735 1711 1658 1612 1514 1500 1488 1492 1489 1430 1412 1410 1421 1403 1391 1360 1360 1397 1382 1419 1469 1516 1504 1511 1492 1454 1400 1369 1328 1324 1320 1321 1321 1348 1374 1378 1404 1358 1495 1370 1318 1305 1304 1298 1294 1299 1300 1303 1299 1296 1296 1293 1294 1290 1292 1291 1294 1297 1303 1309 1311 1315 1329 1335 1360 1380 1391 1410 1453 1457 1459 1459 1536 1580 1588 1556 1595 1635 1661 1671 1714 1739 1777 1800 1825 1837 1856 1863 1909 1917 1945 1953 1997 1872 1839 1820 1820 1796 1773 1764 1753 1721 1703 1666 1657 1633 1623 1594 1576 1581 1557 1542 1562 1586 1680
816 747 702 727 705 522 709 561 405 326 419 420 571 743 751 931 993 914 864 679 747 733 520 439 372 533 899 885 885 932 1163 1141 1076 964 887 837 770 696 687 567 654 875 945 1076 1154 1033 1090 1231 1081 1059 1201 1286 1442 1285 1016 1084 1023 915 772 654 673 664 739 589 589 774 736 519 588 631 914 969 1098 1177 1240 1333 1180 1107 944 867 836 845 673 868 912 910 1144 1159 1243 1459 1281 1160 946 886 1016 832 874 1017 1342 1501 1613 1636 1647 1678 1727 1799 1904 1855 1874 1857 1837 1793 1747 1707 1678 1545 1499 1512 1579 1667 1799 1839 1851 1884 1884 1825 1799 1715 1665 1650 1574 1541 1457 1423 1398 1385 1392 1383 1383 1364 1359 1413 1378 1411 1502 1575 1644 1676 1678 1607 1561 1492 1439 1395 1352 1322 1321 1400 1562 1490 1485 1498 1431 1464 1347 1311 1305 1305 1297 1300 1303 1303 1300 1298 1298 1297 1296 1298 1287 1296 1292 1297 1299 1301 1302 1304 1311 1336 1370 1358 1378 1388 1416 1434 1460 1472 1481 1496 1512 1528 1572 1606 1610 1638 1675 1693 1700 1740 1759 1767 1829 1811 1817 1857 1902 1956 1950 1913 1883 1845 1833 1802 1771 1752 1733 1712 1689 1669 1663 1638 1637 1622 1617 1587 1553 1562 1548 1567 1579 1569
867 873 896 782 679 803 655 480 574 381 347 395 540 624 608 655 883 990 857 917 780 721 745 619 433 390 570 683 642 882 1182 1223 1253 1158 1077 948 881 931 941 776 765 726 826 747 742 819 1018 899 1122 1184 1292 1419 1445 1423 1246 1274 1159 1156 1115 955 700 928 812 926 695 630 627 450 552 565 674 829 914 1028 1111 1331 1266 1178 1111 1051 1069 903 841 696 746 848 959 1289 1489 1633 1489 1491 1342 998 885 925 889 1033 936 1137 1121 1221 1357 1616 1707 1834 1826 1776 1793 1772 1767 1753 1704 1642 1529 1471 1531 1629 1672 1862 1875 1897 1977 2011 2023 1931 1899 1821 1765 1698 1609 1522 1495 1442 1397 1369 1357 1346 1339 1339 1368 1467 1404 1452 1550 1677 1783 1853 1827 1736 1640 1509 1468 1394 1376 1321 1321 1374 1470 1555 1675 1535 1472 1403 1357 1313 1313 1305 1304 1304 1304 1305 1302 1302 1298 1299 1297 1293 1290 1295 1292 1297 1297 1305 1312 1311 1333 1357 1364 1379 1396 1419 1445 1458 1468 1480 1498 1516 1537 1555 1566 1582 1589 1610 1651 1652 1679 1711 1709 1751 1812 1789 1801 1819 1840 1921 1935 1998 1848 1831 1784 1778 1743 1709 1707 1685 1660 1650 1642 1622 1606 1610 1616 1574 1552 1542 1539 1562 1574 1558
892 963 962 837 792 707 757 606 568 436 383 355 448 465 649 662 845 985 1135 1044 993 818 768 668 653 513 393 495 601 733 877 1098 1348 1225 1297 1186 1097 1101 979 762 856 912 1185 1124 1118 1087 1059 924 964 1064 1213 1120 1127 1293 1176 1348 1300 1165 954 991 1006 1014 1028 1005 917 817 761 450 509 549 675 708 889 931 1055 1145 1166 1233 1362 1238 1122 896 792 872 871 766 859 1000 1177 1451 1709 1561 1681 1377 1360 1104 1319 1183 1204 1271 1104 1061 1168 1387 1753 1735 1681 1695 1649 1686 1701 1650 1523 1490 1494 1571 1660 1695 1695 1865 1908 1963 2070 2239 2169 2042 1990 1907 1832 1735 1628 1541 1478 1426 1396 1357 1352 1346 1339 1339 1347 1398 1428 1518 1591 1698 1823 1954 1926 1813 1682 1563 1467 1389 1366 1344 1326 1341 1429 1513 1559 1533 1466 1413 1360 1315 1309 1299 1302 1294 1308 1303 1302 1301 1300 1300 1298 1297 1296 1296 1297 1294 1296 1295 1300 1319 1351 1361 1385 1397 1413 1429 1453 1468 1471 1487 1504 1516 1535 1550 1547 1567 1590 1600 1622 1642 1641 1659 1689 1735 1768 1826 1782 1776 1849 1827 1852 1850 1819 1798 1780 1751 1739 1706 1694 1678 1647 1629 1625 1614 1613 1589 1574 1562 1560 1550 1526 1528 1541 1531
855 952 858 903 892 765 690 749 630 476 566 421 355 514 671 764 993 857 952 985 1048 959 968 889 754 714 475 396 599 657 934 972 1319 1452 1450 1411 1247 1142 891 1130 1062 819 895 1172 1361 1381 1331 1304 1108 935 918 1035 1181 1062 1190 1183 1314 1166 1181 1089 1049 1062 1107 1050 754 653 547 526 546 541 753 992 1193 1049 1088 1174 1237 1309 1363 1246 1127 1003 1004 924 891 901 1005 881 1132 1344 1527 1783 1853 1523 1747 1556 1738 1399 1370 1347 1364 1305 1188 1196 1477 1516 1494 1434 1387 1445 1436 1425 1456 1503 1546 1700 1740 1816 1760 1871 1908 1961 2074 2158 2153 2084 1978 1894 1795 1709 1614 1509 1456 1403 1352 1339 1339 1339 1339 1339 1339 1359 1450 1506 1583 1677 1744 1823 1827 1725 1641 1532 1459 1396 1364 1352 1328 1326 1369 1433 1462 1446 1413 1374 1349 1382 1313 1310 1304 1305 1307 1304 1306 1302 1301 1300 1298 1293 1298 1298 1297 1300 1317 1312 1314 1327 1338 1352 1377 1404 1422 1443 1469 1548 1482 1501 1504 1520 1533 1552 1567 1578 1585 1596 1616 1638 1644 1650 1679 1704 1730 1741 1744 1752 1775 1795 1801 1804 1809 1764 1764 1729 1718 1694 1683 1658 1646 1619 1594 1585 1588 1579 1572 1544 1530 1527 1528 1506 1505 1531
847 911 770 670 769 847 923 849 701 695 514 463 565 381 577 522 630 594 690 914 1035 1118 1082 917 623 568 599 461 557 634 731 882 1110 1200 1266 1131 1102 1268 1082 1272 1085 1110 1102 894 1052 1183 1367 1488 1360 1184 920 1200 1190 1137 1250 1310 1264 1229 1245 1208 1166 991 812 708 829 655 461 772 719 837 694 646 741 781 1007 1003 1157 1301 1333 1298 1150 1090 1006 934 1000 954 1153 1102 963 1162 1369 1639 1794 1632 1673 1757 1789 1736 1539 1367 1431 1375 1249 1177 1241 1346 1326 1331 1356 1366 1362 1403 1527 1554 1641 1716 1805 1943 1846 1869 1872 1894 1971 2002 1954 1984 1922 1826 1736 1649 1576 1492 1435 1392 1349 1339 1339 1339 1339 1339 1339 1394 1452 1493 1554 1603 1657 1680 1669 1621 1542 1506 1434 1385 1367 1330 1324 1324 1326 1360 1377 1329 1319 1321 1308 1315 1314 1301 1311 1310 1305 1307 1304 1304 1301 1301 1298 1294 1299 1297 1297 1298 1299 1326 1336 1344 1362 1372 1389 1405 1430 1448 1451 1461 1493 1480 1494 1504 1517 1534 1539 1556 1566 1595 1603 1614 1647 1660 1708 1682 1698 1711 1720 1778 1745 1741 1775 1777 1767 1754 1723 1711 1691 1678 1656 1649 1641 1631 1608 1583 1560 1534 1545 1542 1528 1518 1520 1519 1514 1536
715 794 772 576 641 815 772 793 686 619 487 550 501 551 398 503 708 647 770 971 1105 1160 986 761 843 823 831 537 441 679 850 846 901 971 1123 930 1001 1118 1302 1453 1354 1368 1314 1040 999 1255 1503 1504 1361 1260 1149 996 1171 1272 1450 1384 1303 930 1019 1066 1069 990 910 837 691 471 560 841 892 952 897 907 866 855 940 992 1128 1260 1432 1492 1318 1186 1088 1108 1099 1100 1303 1380 1193 1011 1143 1385 1352 1419 1506 1553 1658 1782 1570 1529 1526 1516 1339 1367 1336 1368 1476 1533 1494 1450 1449 1424 1433 1480 1541 1613 1755 1921 1912 1838 1778 1813 1847 1876 1877 1858 1809 1745 1701 1630 1528 1455 1394 1441 1406 1348 1339 1339 1339 1339 1339 1370 1419 1475 1542 1600 1651 1614 1577 1529 1504 1471 1435 1390 1360 1344 1339 1362 1328 1320 1315 1310 1305 1311 1313 1313 1310 1305 1312 1306 1307 1304 1304 1305 1301 1303 1298 1296 1299 1300 1298 1307 1316 1323 1334 1348 1366 1386 1399 1406 1431 1432 1451 1463 1502 1470 1478 1499 1510 1512 1533 1532 1551 1570 1581 1618 1647 1668 1704 1689 1708 1730 1681 1703 1710 1713 1720 1736 1735 1725 1693 1677 1676 1666 1644 1624 1608 1619 1597 1583 1558 1550 1547 1529 1524 1508 1503 1518 1505 1530
647 717 689 567 551 511 661 878 710 553 507 583 622 641 580 419 472 567 782 872 978 1013 1137 976 854 772 652 552 588 525 651 776 1016 866 947 767 840 826 993 1232 1423 1521 1425 1114 1248 1455 1440 1592 1469 1275 1069 1099 1225 1396 1491 1447 1379 1052 891 757 692 613 571 556 581 529 552 636 670 722 814 1097 1114 1038 1046 1273 1186 1305 1522 1712 1506 1273 1213 1131 1180 1374 1502 1434 1259 1226 1078 1250 1314 1502 1655 1790 1847 1922 1682 1533 1610 1565 1414 1509 1439 1481 1595 1616 1562 1580 1571 1555 1503 1540 1640 1596 1584 1684 1737 1763 1704 1768 1741 1772 1789 1775 1802 1820 1789 1761 1703 1496 1372 1351 1352 1345 1346 1339 1339 1339 1365 1407 1439 1473 1535 1568 1571 1567 1550 1531 1485 1471 1424 1390 1357 1337 1345 1327 1316 1312 1315 1315 1315 1314 1318 1320 1308 1311 1312 1311 1308 1307 1305 1307 1307 1303 1300 1299 1303 1301 1302 1307 1313 1320 1326 1328 1351 1372 1397 1424 1434 1432 1435 1450 1460 1467 1476 1497 1505 1504 1518 1527 1536 1562 1586 1606 1630 1642 1667 1689 1681 1679 1679 1694 1690 1689 1700 1703 1693 1662 1641 1641 1647 1644 1635 1617 1602 1600 1580 1560 1547 1531 1511 1507 1499 1517 1506 1513 1489 1506
386 491 540 417 482 585 640 784 723 687 613 785 582 552 503 407 460 577 587 701 784 1015 1142 948 827 708 535 652 672 686 613 667 733 889 614 947 1060 1066 1290 1406 1583 1667 1569 1247 1301 1575 1537 1349 1414 1354 1467 1270 1363 1464 1426 1331 1171 903 825 813 799 770 641 544 654 499 691 775 867 751 922 1101 1125 1237 1404 1477 1323 1338 1605 1743 1545 1623 1423 1203 1268 1274 1506 1519 1465 1431 1223 1275 1409 1218 1271 1338 1490 1652 1818 1707 1647 1574 1637 1596 1597 1539 1678 1648 1630 1659 1639 1622 1627 1512 1461 1461 1461 1460 1510 1567 1642 1667 1670 1695 1721 1800 1908 1970 2090 1958 1750 1496 1362 1358 1351 1347 1346 1347 1347 1401 1459 1497 1526 1538 1621 1686 1560 1528 1515 1489 1469 1447 1420 1401 1362 1341 1330 1323 1321 1313 1322 1317 1317 1316 1312 1318 1303 1313 1315 1310 1310 1312 1308 1313 1303 1303 1302 1300 1304 1303 1303 1303 1301 1318 1321 1322 1353 1360 1388 1410 1435 1415 1419 1427 1448 1468 1469 1482 1492 1496 1506 1528 1541 1555 1584 1600 1607 1632 1623 1677 1679 1675 1690 1689 1694 1651 1666 1734 1672 1635 1635 1611 1613 1612 1619 1609 1593 1581 1560 1550 1536 1520 1511 1497 1483 1496 1490 1508 1521 1485
462 490 431 489 540 612 563 586 714 785 860 723 665 646 604 455 442 572 521 580 625 717 913 918 723 854 881 949 922 616 623 804 624 661 805 654 714 1003 1048 1255 1571 1531 1426 1522 1605 1652 1499 1201 1227 1205 1326 1360 1480 1404 1155 1063 927 922 828 804 747 735 730 708 496 579 686 887 1078 1056 1050 1163 1091 1258 1325 1465 1629 1613 1673 1750 1681 1331 1276 1454 1622 1320 1591 1754 1602 1363 1226 1453 1353 1642 1615 1474 1652 1552 1676 1744 1825 1733 1689 1772 1621 1697 1780 1737 1726 1710 1666 1649 1567 1555 1491 1461 1461 1461 1461 1461 1461 1474 1540 1658 1687 1768 1965 1981 1910 1812 1622 1423 1373 1362 1354 1352 1347 1366 1436 1517 1610 1673 1708 1727 1694 1701 1553 1518 1510 1535 1533 1518 1498 1487 1485 1449 1374 1335 1329 1334 1328 1324 1322 1318 1322 1319 1307 1316 1319 1311 1311 1310 1307 1309 1310 1308 1305 1297 1305 1306 1306 1304 1301 1307 1316 1322 1329 1370 1380 1421 1419 1418 1428 1435 1439 1458 1470 1465 1474 1492 1489 1520 1532 1548 1573 1577 1597 1612 1638 1651 1659 1673 1700 1705 1695 1658 1658 1649 1631 1617 1610 1603 1596 1608 1602 1585 1567 1561 1550 1540 1531 1517 1498 1492 1482 1478 1467 1476 1506 1473
624 666 501 580 575 494 481 577 588 654 809 783 638 518 624 564 516 539 639 759 824 917 1081 1082 789 1010 861 867 748 524 513 735 889 801 1057 1150 815 1067 1062 1342 1665 1556 1495 1264 1373 1553 1500 1288 1092 1084 1111 1246 1401 1396 1287 1167 1044 933 807 846 847 884 858 679 547 657 768 876 1208 1330 1344 1315 1271 1272 1228 1417 1385 1475 1658 1672 1545 1646 1622 1697 1631 1366 1627 1691 1511 1562 1603 1780 1550 1766 1578 1507 1537 1658 1704 1767 1865 1860 1823 1785 1691 1775 1849 1784 1758 1714 1651 1613 1607 1645 1639 1600 1537 1484 1459 1461 1461 1461 1461 1512 1575 1575 1707 1753 1673 1549 1445 1386 1377 1369 1358 1351 1357 1430 1520 1657 1773 1877 1911 1899 1784 1641 1549 1561 1593 1589 1597 1577 1555 1566 1581 1560 1478 1381 1331 1331 1322 1322 1326 1323 1323 1314 1308 1314 1316 1314 1311 1315 1312 1311 1308 1306 1304 1300 1306 1304 1306 1303 1306 1312 1326 1331 1349 1359 1377 1390 1397 1406 1427 1433 1436 1444 1463 1463 1474 1480 1536 1553 1601 1604 1570 1572 1587 1612 1622 1645 1667 1697 1743 1750 1706 1669 1634 1620 1615 1608 1592 1580 1582 1570 1566 1570 1556 1542 1536 1517 1516 1505 1493 1478 1477 1470 1455 1468 1459 1454
814 729 607 472 762 652 658 588 485 684 656 796 609 785 551 553 544 478 665 827 868 1099 1265 1246 1257 1066 758 766 666 905 636 748 690 818 988 1166 1222 1066 1476 1425 1514 1239 1343 1426 1137 1134 1256 1261 974 1058 1159 1106 1225 1312 1316 961 965 776 804 986 732 752 755 627 518 637 713 810 1003 1272 1418 1451 1496 1549 1436 1286 1441 1691 1691 1734 1771 1735 1702 1658 1760 1687 1735 1529 1399 1499 1653 1542 1617 1462 1359 1419 1526 1597 1647 1708 1798 1871 1900 2025 1922 1956 1879 1828 1774 1727 1700 1680 1686 1731 1670 1641 1572 1517 1505 1500 1461 1461 1461 1461 1492 1487 1493 1495 1472 1425 1415 1509 1435 1419 1387 1374 1388 1456 1559 1717 1849 1982 2138 1989 1859 1662 1567 1591 1622 1685 1657 1650 1620 1626 1656 1592 1491 1391 1336 1326 1334 1327 1328 1322 1325 1318 1310 1318 1314 1317 1310 1316 1313 1310 1310 1309 1308 1303 1304 1304 1304 1308 1307 1316 1322 1344 1352 1357 1375 1384 1400 1401 1409 1435 1452 1464 1472 1482 1478 1500 1562 1602 1657 1668 1599 1570 1578 1596 1603 1627 1661 1699 1804 1738 1681 1658 1629 1606 1602 1687 1721 1578 1635 1555 1547 1532 1530 1521 1516 1506 1501 1497 1479 1472 1468 1471 1459 1448 1457 1443
983 732 686 591 685 858 758 796 642 657 604 691 929 767 789 789 665 515 540 632 867 1088 995 1105 931 817 865 736 863 786 565 639 782 1033 1031 1103 1308 1491 1247 1254 1241 1339 1028 1009 1031 981 1149 1084 881 934 976 1088 1095 1121 1113 1181 955 1036 962 1091 1079 935 796 650 547 579 683 902 981 1113 1336 1451 1545 1676 1569 1373 1468 1527 1642 1694 1537 1432 1358 1497 1542 1667 1772 1468 1485 1263 1310 1409 1256 1306 1384 1426 1514 1590 1673 1776 1877 1948 1976 1990 2014 1924 1891 1830 1800 1767 1730 1755 1785 1855 1721 1677 1658 1607 1585 1550 1514 1477 1461 1461 1461 1493 1458 1447 1453 1417 1462 1477 1486 1475 1425 1396 1402 1461 1565 1696 1819 1962 2026 1934 1784 1624 1586 1627 1708 1785 1708 1672 1639 1599 1603 1537 1447 1370 1341 1336 1347 1335 1330 1318 1317 1316 1314 1318 1316 1319 1313 1319 1316 1318 1312 1310 1306 1306 1309 1309 1309 1312 1317 1320 1325 1342 1352 1359 1374 1375 1379 1410 1431 1454 1471 1498 1515 1551 1503 1537 1565 1590 1644 1601 1727 1608 1556 1572 1604 1629 1662 1701 1737 1710 1668 1649 1609 1589 1592 1618 1657 1730 1657 1601 1527 1515 1512 1500 1500 1497 1487 1485 1486 1471 1467 1461 1449 1443 1439 1435
1063 870 843 624 586 657 800 949 903 809 783 913 965 985 722 573 622 673 502 558 686 738 878 819 940 1028 971 1019 749 641 750 958 626 727 996 1180 1223 1412 1342 1101 1133 1436 1342 1303 1076 843 1115 1099 854 893 974 928 1114 1027 1031 1023 1109 1271 1368 1237 1290 1104 934 886 667 556 755 909 973 1128 1250 1401 1588 1644 1633 1604 1729 1554 1403 1430 1569 1431 1462 1230 1533 1538 1459 1319 1327 1220 1123 1120 1155 1260 1437 1579 1532 1620 1703 1776 1866 2068 2154 2132 2028 1959 1924 1884 1829 1783 1753 1777 1821 1850 1778 1725 1718 1870 1730 1647 1646 1613 1552 1507 1478 1461 1467 1452 1439 1464 1488 1525 1530 1482 1457 1448 1458 1472 1529 1605 1691 1783 1813 1756 1657 1564 1583 1651 1735 1792 1718 1670 1606 1567 1562 1510 1447 1381 1340 1343 1335 1331 1324 1319 1315 1312 1321 1324 1319 1319 1318 1325 1319 1319 1316 1311 1308 1308 1306 1311 1313 1313 1316 1321 1325 1333 1338 1351 1358 1390 1406 1426 1444 1464 1486 1511 1527 1532 1506 1506 1510 1554 1548 1551 1566 1555 1537 1567 1609 1619 1643 1651 1654 1633 1616 1620 1594 1573 1562 1546 1675 1636 1695 1525 1505 1499 1497 1482 1479 1482 1469 1475 1475 1469 1459 1456 1453 1440 1433 1420
1165 1174 1005 918 868 818 809 742 896 1058 1045 1046 1142 1000 818 853 798 614 640 798 862 879 782 744 803 980 1118 867 762 639 931 1029 788 895 1018 1075 1227 1281 1162 1022 1123 1123 1217 976 991 927 923 1012 732 810 1016 1016 1084 928 941 892 1053 1240 1204 1090 963 1016 845 659 622 607 632 803 927 1126 1143 1118 1338 1541 1551 1567 1471 1342 1301 1218 1256 1217 1214 1171 1512 1404 1193 1234 1039 1051 1217 1446 1628 1534 1468 1742 1676 1751 1988 1964 2018 2124 2252 2215 2130 2046 1983 1918 1852 1815 1772 1791 1877 1908 1835 1774 1986 1940 1839 1699 1635 1589 1546 1590 1533 1474 1465 1468 1475 1496 1542 1608 1602 1532 1494 1448 1414 1434 1496 1567 1632 1643 1659 1622 1553 1520 1573 1626 1716 1738 1714 1659 1603 1569 1505 1478 1417 1351 1341 1340 1329 1328 1325 1321 1313 1334 1327 1327 1326 1325 1324 1327 1328 1320 1312 1315 1311 1312 1315 1310 1310 1310 1312 1313 1319 1320 1329 1360 1379 1383 1392 1398 1425 1438 1465 1481 1502 1521 1526 1526 1515 1523 1512 1499 1503 1518 1528 1558 1562 1581 1604 1602 1599 1598 1579 1576 1579 1571 1560 1548 1535 1556 1644 1665 1628 1492 1479 1474 1464 1459 1454 1456 1447 1442 1444 1445 1441 1432 1427 1409
869 987 914 1124 1085 1121 1140 1095 1211 1281 1275 1280 1315 1176 1219 949 814 940 674 842 1124 1168 988 994 1124 1126 1062 878 844 687 912 836 837 813 972 1205 1299 1331 1270 988 880 997 1145 1183 941 1070 816 955 715 797 925 978 1054 966 791 950 1026 1097 1152 1020 968 876 893 861 815 646 585 835 1002 1018 1076 1166 1070 1338 1167 1318 1205 1216 1218 1183 1093 1117 1128 1136 1170 1006 979 982 1251 1383 1510 1515 1525 1603 1667 1681 1816 1932 2072 2163 2173 2282 2534 2492 2232 2110 2009 1938 1887 1827 1792 1781 1799 1834 1931 1918 1835 1791 1748 1722 1657 1615 1559 1506 1467 1462 1463 1457 1498 1589 1643 1705 1645 1561 1522 1500 1421 1415 1453 1482 1531 1553 1520 1492 1452 1491 1544 1623 1630 1642 1635 1581 1530 1506 1473 1447 1407 1360 1339 1337 1323 1318 1317 1323 1333 1345 1324 1326 1329 1328 1330 1325 1319 1325 1322 1318 1309 1309 1318 1312 1315 1313 1316 1316 1321 1325 1347 1372 1380 1389 1411 1422 1438 1443 1456 1476 1497 1557 1584 1527 1497 1478 1479 1482 1495 1497 1519 1534 1538 1560 1565 1576 1570 1570 1554 1545 1553 1532 1538 1526 1523 1539 1625 1646 1627 1475 1457 1448 1452 1436 1433 1442 1436 1427 1422 1424 1427 1421 1421 1406
754 770 710 848 805 1000 1029 1257 1017 1096 1085 1270 1244 1294 1313 1227 1125 915 1016 855 1037 1143 1247 1115 1177 936 987 974 988 874 829 1182 1102 1159 1183 998 1235 984 909 1000 958 884 1064 856 978 956 788 733 717 770 842 935 876 735 912 968 1043 1054 1022 1202 1204 1082 955 887 814 644 618 812 800 837 897 1013 1021 1034 1000 1058 1058 1077 1125 1094 1027 1066 1052 1028 1015 908 970 1319 1557 1740 1599 1724 1639 1700 1783 1732 1719 1781 1922 2075 2273 2526 2431 2194 2127 2106 1995 1935 1873 1838 1797 1780 1785 1874 2010 1905 1838 1753 1715 1733 1726 1636 1519 1455 1446 1448 1450 1463 1570 1659 1755 1853 1700 1645 1590 1532 1445 1390 1397 1408 1428 1439 1464 1449 1441 1428 1461 1529 1542 1549 1544 1504 1480 1450 1425 1402 1391 1345 1334 1324 1324 1324 1330 1352 1331 1327 1332 1323 1328 1335 1333 1329 1325 1325 1311 1313 1316 1315 1313 1313 1318 1319 1318 1322 1325 1328 1333 1364 1376 1389 1408 1429 1444 1451 1463 1470 1516 1578 1593 1505 1472 1481 1482 1483 1497 1499 1526 1524 1530 1540 1535 1549 1547 1549 1539 1529 1515 1518 1518 1519 1516 1519 1588 1589 1445 1432 1433 1427 1437 1424 1412 1418 1408 1414 1419 1404 1401 1411 1406 1408
595 608 688 803 783 869 999 1123 1020 932 1030 1150 1171 1106 1281 1394 1287 1307 1151 1148 1158 1086 1209 1055 993 939 897 1028 1004 982 945 1028 1198 1066 944 1061 1240 1129 1063 801 918 711 812 721 840 945 864 857 761 823 676 665 858 836 842 812 819 897 1032 1153 1229 1179 1139 932 798 631 685 659 755 863 873 766 983 887 934 910 943 950 943 961 1034 1074 1051 898 856 849 948 1077 1173 1515 1774 1801 1808 1763 1561 1517 1582 1708 1837 1949 2023 2328 2381 2125 2056 2012 1951 1925 1880 1851 1828 1767 1765 1835 1907 1939 1993 1853 1808 1728 1635 1554 1497 1456 1453 1448 1441 1462 1535 1654 1745 1790 1795 1731 1657 1529 1451 1378 1366 1364 1368 1399 1442 1437 1409 1387 1402 1462 1444 1452 1453 1438 1420 1400 1378 1336 1328 1330 1346 1329 1327 1347 1342 1331 1332 1330 1327 1325 1325 1344 1342 1339 1328 1318 1311 1314 1319 1316 1321 1319 1319 1314 1317 1320 1320 1324 1375 1427 1410 1417 1424 1440 1448 1468 1463 1466 1490 1500 1506 1455 1469 1470 1471 1487 1493 1494 1516 1510 1524 1527 1529 1527 1522 1528 1526 1513 1520 1512 1503 1498 1493 1500 1489 1484 1437 1427 1422 1413 1411 1407 1408 1407 1405 1399 1397 1394 1386 1394 1397 1402
685 814 1047 1019 1148 1044 1240 1081 982 780 925 1111 1074 1083 1249 1108 1280 1149 1125 1160 1055 1048 1044 1170 1155 916 807 941 1008 850 848 1021 1018 823 974 1092 1165 993 852 920 887 986 882 769 643 742 711 767 651 703 942 1014 860 921 922 974 904 1056 1027 1213 1174 1172 1098 894 729 681 906 767 668 604 720 808 783 771 806 808 848 885 927 963 876 817 788 776 782 808 833 888 988 1158 1262 1594 1480 1648 1464 1403 1447 1641 1740 1806 1906 2019 2042 2006 1983 2023 1955 1895 1912 1873 1801 1730 1716 1812 1868 1946 2006 1931 1848 1740 1648 1563 1496 1480 1472 1453 1447 1438 1475 1561 1664 1741 1741 1703 1602 1510 1435 1383 1383 1373 1364 1366 1363 1401 1364 1358 1363 1378 1375 1380 1398 1384 1373 1335 1331 1340 1364 1353 1348 1330 1331 1351 1351 1339 1341 1339 1331 1331 1335 1329 1327 1323 1321 1315 1314 1315 1319 1323 1325 1324 1316 1325 1329 1326 1324 1330 1432 1397 1398 1424 1429 1432 1424 1436 1456 1458 1456 1466 1449 1461 1457 1468 1478 1486 1491 1490 1495 1507 1504 1510 1507 1508 1515 1515 1509 1515 1514 1506 1497 1481 1481 1479 1474 1458 1443 1430 1419 1412 1399 1394 1400 1401 1392 1391 1379 1376 1378 1380 1380 1394
892 800 802 915 1106 1130 1171 1168 908 686 964 1036 1081 916 1045 977 989 1113 1146 1095 1075 942 1037 846 1011 1077 756 848 976 802 745 888 762 831 841 829 1077 1037 919 977 1084 951 848 830 793 829 813 748 681 872 806 898 1166 1123 977 1060 1088 1276 1246 1295 1130 1102 1054 945 944 977 915 845 770 634 765 689 696 766 864 830 846 928 836 775 770 762 822 917 914 925 915 874 915 958 1033 1100 1169 1161 1211 1295 1395 1547 1613 1694 1746 1846 1879 1899 1915 2057 1980 1870 1830 1810 1769 1712 1654 1760 1801 1857 1900 1858 1783 1700 1602 1521 1478 1477 1509 1493 1466 1442 1437 1479 1516 1573 1600 1575 1527 1469 1420 1382 1375 1367 1365 1369 1368 1373 1370 1367 1368 1357 1347 1360 1357 1353 1360 1349 1365 1359 1363 1354 1330 1338 1350 1359 1371 1350 1337 1349 1362 1336 1330 1323 1316 1317 1312 1314 1321 1318 1318 1327 1325 1333 1332 1335 1337 1336 1341 1349 1363 1385 1394 1408 1420 1420 1429 1424 1435 1483 1437 1438 1449 1456 1456 1461 1470 1490 1498 1481 1482 1486 1488 1478 1483 1489 1497 1504 1499 1497 1496 1497 1499 1474 1467 1469 1457 1448 1437 1435 1496 1396 1394 1393 1392 1385 1384 1379 1377 1373 1373 1369 1371 1381
746 550 697 983 1058 1096 1217 946 777 721 727 897 1091 915 747 847 822 883 1073 1122 1099 1230 1185 1038 904 790 886 1091 1016 863 960 885 690 769 839 763 812 906 1033 977 1034 863 846 1016 804 860 701 583 801 989 1159 1084 1080 1044 1093 1153 1240 1324 1263 1176 1263 1270 1124 1179 1051 1125 867 706 673 724 809 738 669 661 653 686 688 729 759 814 784 850 924 1042 1123 1322 1273 1072 896 969 964 1110 1177 1227 1267 1245 1423 1462 1522 1671 1793 1907 1849 1870 1875 1902 1899 1871 1805 1771 1741 1661 1607 1574 1690 1730 1759 1716 1640 1534 1477 1477 1477 1477 1477 1509 1482 1441 1433 1424 1425 1429 1446 1435 1480 1533 1521 1480 1428 1439 1374 1431 1378 1396 1366 1371 1388 1369 1356 1352 1351 1336 1377 1358 1357 1345 1350 1333 1364 1380 1422 1410 1417 1405 1360 1350 1331 1327 1326 1319 1316 1316 1319 1319 1318 1315 1326 1341 1339 1341 1336 1343 1366 1357 1355 1358 1379 1382 1389 1388 1402 1407 1415 1422 1429 1434 1432 1439 1442 1446 1455 1456 1479 1490 1480 1473 1465 1474 1468 1460 1468 1473 1486 1483 1489 1487 1486 1478 1477 1470 1464 1454 1455 1443 1439 1432 1485 1412 1402 1394 1387 1378 1372 1363 1374 1368 1365 1356 1364 1372
491 693 1036 1083 1202 1226 1244 1137 870 758 691 795 869 1083 728 876 975 1008 974 1055 1014 1029 1062 902 1010 1130 789 779 928 902 818 731 774 776 831 892 937 992 983 867 856 1007 1006 921 929 898 646 630 725 891 953 847 963 1026 1062 1149 1171 1298 1327 1435 1412 1442 1391 1337 1235 1075 934 705 714 743 893 887 861 737 674 788 986 916 966 841 856 1010 1267 1391 1426 1682 1504 1207 1139 917 1033 1034 1055 1099 1142 1261 1335 1457 1521 1617 1692 1740 1774 1799 1807 1806 1802 1783 1761 1734 1717 1650 1584 1549 1519 1564 1582 1582 1481 1477 1477 1477 1477 1477 1477 1506 1480 1444 1422 1426 1421 1446 1442 1463 1614 1747 1701 1700 1565 1491 1436 1391 1447 1419 1389 1370 1386 1379 1392 1374 1378 1377 1378 1364 1365 1371 1363 1359 1397 1435 1472 1466 1476 1420 1386 1382 1349 1333 1330 1317 1321 1333 1328 1321 1319 1316 1318 1346 1348 1350 1348 1355 1363 1370 1373 1375 1382 1384 1392 1387 1403 1395 1411 1422 1431 1431 1429 1431 1434 1446 1444 1458 1467 1475 1453 1452 1457 1453 1460 1460 1467 1476 1477 1475 1473 1472 1478 1479 1472 1459 1457 1465 1450 1429 1427 1428 1416 1406 1400 1393 1384 1381 1374 1361 1367 1365 1365 1360 1360 1359
569 548 654 725 922 1027 1123 912 926 835 629 751 946 1000 725 863 813 1041 950 924 944 1161 1097 1008 781 756 815 724 979 885 641 709 917 929 824 891 837 1016 801 779 891 975 753 913 867 811 762 789 562 621 660 868 963 953 1138 1241 1250 1436 1179 1314 1352 1344 1387 1363 1188 1088 903 808 817 923 1035 1003 1026 930 793 763 901 973 1019 947 996 960 1039 1302 1406 1591 1493 1196 1130 1107 1270 1101 1001 1071 1187 1307 1352 1411 1485 1588 1675 1708 1722 1746 1740 1731 1733 1736 1699 1708 1697 1676 1622 1590 1567 1507 1477 1477 1477 1477 1477 1477 1477 1477 1520 1533 1458 1433 1430 1442 1470 1450 1452 1468 1705 1952 2109 1915 1772 1621 1515 1480 1410 1386 1393 1400 1404 1404 1399 1378 1384 1378 1378 1373 1371 1372 1357 1381 1432 1484 1515 1529 1538 1439 1405 1376 1367 1351 1330 1330 1344 1323 1323 1326 1322 1319 1321 1349 1356 1354 1354 1362 1365 1373 1377 1380 1387 1383 1393 1391 1420 1417 1457 1427 1428 1433 1441 1436 1448 1456 1459 1455 1451 1448 1443 1454 1449 1454 1455 1453 1457 1468 1468 1472 1465 1465 1462 1463 1467 1457 1447 1447 1433 1421 1410 1412 1400 1402 1390 1384 1370 1366 1362 1360 1362 1358 1365 1368 1353 1358
683 744 882 806 776 805 920 1038 994 848 885 544 752 817 548 681 780 665 895 948 975 1067 1005 982 1061 961 884 725 746 619 842 958 908 851 880 935 981 978 925 883 829 713 640 717 776 902 745 683 558 781 940 807 934 917 958 1113 1319 1088 995 1093 1166 1185 1295 1245 1236 1224 1064 867 831 989 1336 1410 1142 1114 980 781 866 1022 1132 1294 1365 1211 1108 1423 1484 1712 1690 1563 1252 1163 1423 1472 1162 1029 1081 1332 1455 1524 1531 1574 1647 1689 1697 1716 1703 1697 1697 1705 1708 1706 1723 1705 1685 1626 1570 1521 1477 1478 1477 1476 1477 1481 1501 1518 1542 1481 1453 1440 1428 1435 1471 1461 1492 1469 1595 1723 1778 1767 1726 1649 1535 1411 1387 1387 1395 1410 1401 1403 1382 1383 1378 1382 1375 1372 1369 1361 1356 1387 1472 1541 1544 1544 1531 1427 1407 1388 1365 1349 1332 1329 1328 1323 1338 1322 1320 1331 1351 1349 1354 1354 1357 1357 1367 1374 1378 1379 1379 1382 1389 1394 1396 1408 1459 1440 1444 1440 1434 1449 1464 1462 1446 1448 1445 1444 1448 1445 1440 1443 1448 1449 1453 1451 1453 1464 1461 1461 1450 1446 1455 1452 1442 1433 1425 1411 1403 1400 1393 1386 1381 1378 1368 1362 1359 1358 1355 1355 1360 1359 1353 1350
1035 777 938 1198 1081 1006 1021 914 890 943 768 636 505 511 705 845 766 735 863 1019 1032 1128 1246 1207 1236 1110 909 784 613 803 821 959 881 1166 1015 1062 996 1157 1005 933 805 736 824 762 714 770 868 701 569 703 716 762 910 890 1032 956 943 1093 1183 1447 1396 1302 1305 1371 1439 1251 1274 1156 923 1112 1275 1626 1268 990 972 886 833 987 1133 1478 1635 1383 1118 1381 1743 1730 1691 1378 1214 1333 1642 1638 1460 1134 1137 1145 1334 1488 1565 1667 1730 1760 1792 1734 1697 1697 1709 1740 1759 1778 1777 1784 1681 1645 1599 1566 1534 1533 1522 1541 1538 1536 1578 1550 1495 1462 1457 1437 1446 1444 1494 1506 1499 1495 1490 1514 1518 1516 1549 1571 1509 1408 1391 1391 1383 1397 1404 1385 1383 1382 1369 1370 1364 1365 1365 1364 1361 1391 1443 1484 1493 1470 1479 1394 1382 1360 1343 1337 1337 1329 1329 1354 1364 1322 1335 1339 1341 1350 1357 1355 1363 1370 1377 1376 1375 1376 1398 1391 1393 1394 1449 1440 1442 1444 1435 1436 1445 1446 1458 1453 1445 1449 1438 1444 1456 1435 1431 1431 1445 1442 1446 1437 1432 1452 1457 1449 1439 1436 1438 1434 1429 1417 1411 1404 1398 1387 1382 1379 1381 1374 1375 1360 1352 1354 1351 1354 1355 1358 1344 1343
1086 1122 950 1153 1133 1095 1021 977 827 654 772 700 472 809 849 965 1125 1020 949 1067 960 1162 1072 944 908 833 868 655 606 842 885 1221 1095 1105 1355 1098 1234 1121 996 936 973 854 865 706 769 744 639 613 604 587 738 737 990 836 968 856 984 1305 1440 1614 1542 1479 1336 1349 1584 1557 1383 1204 1030 1185 1342 1677 1482 1137 1072 916 789 969 1160 1173 1373 1565 1277 1408 1640 1811 1638 1614 1381 1323 1520 1691 1643 1355 1227 1110 1101 1208 1493 1605 1735 1922 1744 1730 1704 1734 1748 1764 1800 1818 1822 1838 1754 1697 1636 1619 1597 1593 1616 1598 1597 1616 1560 1505 1472 1460 1448 1448 1473 1476 1526 1589 1503 1466 1432 1417 1469 1408 1403 1389 1390 1389 1394 1388 1391 1403 1403 1399 1383 1379 1380 1378 1371 1382 1365 1371 1359 1372 1392 1431 1444 1422 1366 1363 1378 1345 1339 1332 1332 1327 1332 1356 1351 1360 1341 1343 1342 1352 1357 1358 1358 1375 1376 1379 1390 1399 1388 1394 1448 1446 1426 1438 1443 1455 1444 1444 1444 1480 1455 1451 1438 1433 1439 1432 1431 1427 1423 1420 1429 1433 1439 1429 1430 1438 1435 1439 1436 1429 1424 1424 1421 1413 1412 1399 1389 1378 1376 1376 1364 1361 1364 1362 1355 1351 1351 1357 1365 1355 1344 1341
1128 1059 1015 821 967 1032 858 856 677 761 517 584 487 697 995 967 889 777 1017 916 859 1015 1023 996 760 715 630 585 779 836 1123 1298 1306 1358 1324 1269 1199 1059 860 952 820 972 925 934 810 773 817 821 705 536 662 886 774 705 770 851 968 1213 1350 1435 1564 1426 1370 1346 1489 1631 1391 1380 1041 1033 1215 1339 1586 1391 1107 959 854 912 996 1121 1294 1595 1668 1420 1482 1794 1801 1606 1571 1233 1389 1676 1778 1688 1559 1524 1203 1120 1194 1452 1668 1745 1676 1707 1739 1756 1779 1794 1833 1868 1874 1849 1818 1754 1713 1688 1660 1623 1642 1636 1653 1586 1514 1488 1465 1462 1465 1459 1470 1487 1474 1455 1438 1429 1408 1407 1398 1395 1397 1393 1393 1397 1391 1393 1398 1392 1414 1396 1407 1413 1408 1381 1372 1372 1363 1364 1381 1389 1403 1405 1416 1406 1347 1359 1358 1339 1331 1331 1330 1332 1331 1337 1413 1348 1349 1347 1347 1356 1373 1358 1381 1393 1378 1406 1399 1397 1407 1485 1561 1460 1473 1474 1457 1446 1455 1460 1507 1500 1468 1437 1436 1434 1434 1429 1462 1432 1422 1425 1428 1422 1433 1426 1423 1424 1426 1427 1428 1428 1413 1410 1406 1406 1396 1386 1375 1374 1373 1364 1356 1351 1350 1351 1354 1350 1344 1351 1340 1344 1341 1341
1062 889 783 728 690 740 931 674 600 506 573 422 614 819 926 873 721 813 946 748 822 1024 890 799 746 745 550 714 786 1039 1022 1260 1479 1406 1201 1075 1004 981 917 781 751 775 795 867 804 877 713 713 542 652 654 607 725 800 813 1128 1228 1301 1401 1532 1637 1668 1463 1419 1570 1550 1323 1123 1300 1211 1210 1422 1574 1399 1137 955 859 953 1056 1402 1410 1519 1700 1715 1469 1708 1781 1709 1482 1437 1253 1399 1645 1809 1774 1705 1542 1260 1145 1183 1409 1572 1658 1690 1715 1768 1788 1837 1863 1912 1905 1885 1855 1809 1781 1746 1718 1707 1670 1671 1675 1625 1566 1501 1482 1476 1481 1450 1469 1488 1494 1478 1460 1451 1459 1428 1407 1397 1393 1391 1394 1397 1396 1399 1404 1399 1419 1422 1416 1401 1398 1380 1393 1377 1372 1385 1374 1366 1367 1403 1363 1362 1348 1350 1337 1342 1336 1333 1330 1332 1338 1457 1388 1374 1396 1410 1365 1458 1422 1416 1505 1482 1426 1420 1408 1409 1555 1525 1471 1541 1557 1520 1513 1505 1561 1543 1530 1492 1479 1474 1474 1471 1413 1434 1538 1465 1432 1427 1425 1428 1422 1418 1416 1427 1426 1418 1420 1417 1413 1404 1401 1393 1391 1381 1364 1363 1369 1361 1351 1353 1348 1338 1336 1342 1343 1340 1332 1330 1332 1335
1104 1173 1005 864 605 646 839 946 788 608 536 493 693 961 1042 889 710 595 620 709 892 964 907 909 873 691 573 693 980 1047 1159 1336 1408 1336 1236 1038 956 802 713 671 738 737 903 784 621 607 743 523 544 680 714 837 918 865 926 1027 1066 1336 1483 1637 1680 1750 1617 1557 1596 1505 1298 1415 1534 1269 1204 1537 1751 1407 1151 1040 909 965 1080 1316 1683 1774 1672 1753 1544 1704 1733 1603 1462 1669 1559 1280 1417 1664 1772 1730 1673 1558 1332 1244 1177 1408 1578 1485 1650 1664 1761 1818 1892 1943 1901 1915 1925 1855 1842 1824 1805 1742 1701 1679 1665 1626 1583 1533 1503 1523 1459 1452 1490 1482 1538 1487 1486 1474 1463 1456 1429 1431 1403 1397 1395 1401 1403 1409 1401 1410 1424 1416 1414 1415 1411 1402 1387 1378 1374 1371 1364 1360 1359 1353 1346 1342 1342 1338 1350 1346 1337 1341 1340 1342 1491 1502 1476 1485 1532 1458 1441 1504 1486 1603 1547 1472 1470 1463 1426 1568 1535 1549 1578 1568 1587 1573 1587 1613 1570 1565 1547 1558 1544 1521 1541 1426 1408 1430 1530 1466 1431 1421 1423 1424 1419 1424 1406 1419 1421 1415 1416 1411 1408 1399 1400 1387 1383 1368 1360 1349 1357 1356 1343 1343 1334 1334 1325 1328 1331 1326 1325 1322 1324 1331
1107 1128 1054 739 526 559 729 802 607 533 468 431 641 769 878 859 618 591 671 588 720 799 995 915 672 564 505 599 830 1081 1022 999 1202 1381 1316 1227 1193 1070 994 925 744 591 799 823 887 759 564 607 698 784 831 1006 996 986 1192 1281 1168 1252 1476 1566 1615 1656 1739 1603 1558 1393 1287 1461 1722 1405 1311 1674 1777 1579 1245 1216 971 968 1213 1359 1451 1646 1774 1753 1809 1800 1744 1686 1604 1689 1653 1367 1446 1690 1725 1796 1651 1635 1457 1576 1414 1365 1391 1489 1593 1625 1614 1739 1813 2000 2091 2027 2037 1932 1931 1955 1886 1820 1739 1686 1683 1662 1616 1572 1588 1482 1443 1447 1469 1537 1537 1536 1500 1476 1458 1471 1449 1435 1434 1420 1399 1405 1411 1414 1402 1419 1426 1420 1396 1392 1390 1405 1386 1399 1392 1381 1361 1350 1347 1349 1346 1342 1354 1352 1357 1344 1343 1352 1401 1542 1628 1560 1557 1588 1584 1537 1441 1561 1664 1524 1506 1543 1510 1503 1635 1639 1616 1595 1597 1618 1618 1654 1649 1636 1618 1587 1587 1590 1585 1573 1550 1538 1508 1532 1488 1461 1437 1421 1449 1430 1414 1411 1413 1411 1415 1388 1325 1442 1406 1400 1394 1370 1357 1356 1358 1354 1353 1344 1343 1333 1326 1328 1324 1325 1323 1323 1319 1322 1322 1323
1090 1049 918 856 640 532 477 561 594 478 437 377 405 538 607 664 600 825 785 844 858 734 820 992 941 780 595 472 665 838 851 932 1181 1246 1296 1149 1005 912 839 799 731 575 620 749 844 673 528 649 562 650 767 913 909 940 1247 1348 1320 1342 1452 1514 1513 1641 1806 1634 1554 1507 1563 1643 1526 1390 1415 1819 1724 1523 1536 1310 1019 979 981 1162 1255 1473 1383 1701 1729 1706 1732 1619 1772 1706 1621 1449 1427 1588 1728 1845 1813 1705 1584 1610 1675 1541 1501 1665 1701 1703 1709 1728 1771 1851 1903 2041 2104 2105 2075 1993 1936 1893 1834 1764 1743 1703 1671 1620 1556 1450 1444 1444 1479 1610 1554 1528 1510 1520 1520 1497 1482 1454 1429 1404 1404 1411 1416 1424 1405 1432 1428 1418 1397 1396 1394 1391 1394 1386 1387 1362 1363 1360 1350 1362 1347 1344 1356 1351 1354 1356 1371 1464 1548 1661 1581 1603 1615 1682 1628 1481 1622 1594 1551 1534 1547 1572 1599 1647 1649 1638 1614 1622 1656 1681 1674 1629 1633 1641 1587 1612 1569 1553 1553 1559 1557 1533 1511 1491 1473 1462 1496 1466 1448 1431 1428 1425 1415 1410 1417 1430 1403 1433 1429 1393 1369 1379 1382 1356 1350 1342 1343 1333 1330 1329 1327 1325 1321 1324 1320 1321 1320 1320 1325 1324
879 867 794 816 758 742 536 393 375 475 464 601 574 591 572 604 535 634 800 828 882 972 987 990 877 772 624 492 733 776 679 915 1013 1046 1237 1081 1038 923 864 701 568 508 702 778 623 586 549 690 824 715 653 728 843 970 1055 1259 1405 1589 1545 1685 1587 1669 1758 1575 1453 1517 1643 1723 1664 1479 1404 1689 1713 1622 1505 1226 1005 1098 1050 1055 1139 1131 1252 1242 1289 1386 1445 1505 1553 1672 1619 1560 1529 1657 1726 1734 1684 1633 1767 1729 1753 1753 1676 1703 1765 1851 1821 1826 1950 1918 1972 2078 2186 2082 2138 2083 1940 1856 1795 1788 1738 1693 1668 1591 1514 1444 1444 1485 1575 1703 1601 1546 1528 1548 1545 1516 1517 1442 1442 1443 1414 1416 1424 1429 1416 1438 1425 1408 1402 1392 1384 1370 1376 1374 1376 1383 1365 1356 1356 1366 1349 1350 1356 1367 1395 1502 1692 1600 1667 1656 1585 1710 1622 1562 1564 1611 1603 1600 1594 1582 1600 1602 1671 1679 1677 1650 1628 1672 1661 1698 1630 1603 1615 1585 1577 1553 1544 1521 1514 1509 1513 1514 1506 1499 1489 1514 1487 1472 1469 1466 1449 1444 1430 1414 1403 1411 1402 1392 1386 1388 1383 1372 1356 1351 1347 1346 1340 1331 1327 1328 1323 1324 1323 1320 1318 1319 1317 1317 1320 1323
692 619 757 530 520 478 346 467 570 538 691 810 814 912 707 575 619 553 712 766 700 795 854 952 738 764 557 510 572 713 607 654 738 912 927 1030 915 1027 968 810 649 471 758 687 575 497 653 777 932 938 871 909 865 892 929 1106 1427 1628 1587 1323 1220 1344 1412 1416 1319 1409 1528 1615 1716 1531 1466 1770 1588 1401 1294 1159 1151 1272 1245 1297 1252 1274 1217 1578 1690 1613 1623 1579 1637 1741 1691 1617 1703 1701 1625 1571 1483 1492 1564 1643 1697 1768 1857 1780 1775 1837 1957 1930 1944 1946 1914 1930 2084 1986 1912 1922 1937 1890 1749 1752 1707 1644 1603 1548 1450 1447 1456 1561 1661 1688 1585 1571 1563 1563 1515 1496 1471 1465 1436 1453 1419 1422 1438 1433 1420 1440 1428 1403 1389 1396 1372 1384 1370 1411 1384 1411 1369 1361 1376 1388 1358 1363 1465 1648 1653 1680 1692 1651 1723 1649 1652 1606 1568 1634 1620 1649 1661 1675 1674 1639 1663 1685 1733 1722 1704 1714 1651 1639 1702 1658 1630 1651 1625 1622 1634 1618 1596 1615 1567 1550 1541 1538 1550 1547 1527 1508 1505 1503 1506 1488 1478 1465 1450 1433 1427 1408 1414 1394 1383 1376 1389 1362 1351 1355 1341 1343 1338 1333 1331 1327 1326 1322 1322 1323 1319 1320 1318 1316 1319 1324
597 543 588 524 434 336 377 517 603 616 602 685 966 1062 948 912 814 882 779 670 696 826 854 928 838 645 733 620 452 618 658 781 953 881 768 965 845 695 684 699 642 489 620 477 499 669 780 931 1026 1067 1021 1071 964 995 1125 1435 1495 1558 1399 1329 1085 1207 1337 1284 1210 1326 1320 1546 1667 1794 1707 1599 1699 1639 1409 1250 1503 1678 1607 1490 1691 1330 1380 1321 1501 1573 1611 1640 1542 1541 1614 1783 1704 1639 1404 1407 1439 1527 1550 1603 1680 1752 1828 1940 1951 1981 2060 2087 1986 1878 1762 1822 1975 1971 1827 1814 1782 1763 1727 1671 1650 1601 1514 1460 1456 1453 1499 1600 1694 1684 1606 1556 1547 1544 1534 1509 1499 1475 1478 1446 1424 1430 1443 1430 1445 1437 1440 1398 1422 1378 1383 1384 1381 1416 1412 1381 1389 1367 1404 1369 1451 1673 1702 1693 1708 1705 1708 1717 1729 1658 1711 1632 1643 1669 1666 1712 1720 1721 1686 1683 1696 1703 1741 1718 1738 1722 1676 1705 1722 1731 1714 1696 1696 1671 1665 1627 1599 1564 1564 1596 1577 1588 1571 1558 1543 1529 1515 1523 1518 1497 1494 1481 1479 1450 1450 1427 1414 1408 1394 1399 1376 1348 1344 1343 1347 1351 1347 1348 1335 1328 1324 1323 1322 1320 1319 1319 1319 1315 1319 1318
556 576 452 389 315 406 407 513 722 634 743 885 1029 1109 1080 911 958 996 809 778 885 923 843 977 981 956 893 646 583 456 428 679 902 806 700 679 669 657 532 490 445 544 546 683 648 577 920 1062 1100 1038 1036 1149 1295 1341 1245 1412 1659 1513 1276 1117 973 1051 1224 1085 1188 1305 1437 1626 1822 1609 1500 1411 1531 1436 1553 1441 1401 1490 1782 1756 1603 1626 1524 1552 1514 1570 1541 1536 1472 1336 1376 1432 1362 1298 1252 1350 1384 1384 1507 1587 1662 1753 1826 1897 1834 1871 1902 1891 1844 1924 1744 1738 1855 1854 1814 1810 1753 1709 1696 1628 1595 1541 1480 1470 1458 1458 1496 1553 1578 1606 1603 1538 1522 1504 1510 1508 1491 1489 1483 1484 1447 1456 1436 1442 1455 1421 1429 1414 1405 1389 1402 1388 1394 1416 1415 1399 1372 1440 1378 1407 1656 1681 1714 1724 1740 1711 1688 1688 1705 1745 1661 1690 1676 1663 1708 1729 1721 1707 1700 1692 1700 1711 1776 1735 1727 1692 1759 1862 1873 1876 1837 1753 1712 1692 1661 1627 1617 1628 1601 1571 1564 1592 1606 1553 1515 1549 1520 1513 1499 1495 1495 1486 1475 1468 1467 1452 1426 1380 1365 1368 1373 1346 1344 1346 1354 1353 1347 1339 1332 1324 1325 1330 1320 1321 1315 1319 1317 1317 1315 1317
407 377 311 346 450 662 640 671 762 874 993 1027 1205 1280 1268 1177 1192 1205 1051 1056 930 905 772 726 943 753 819 959 837 685 503 585 609 549 639 582 487 594 525 570 652 861 642 782 783 820 699 767 868 836 882 1028 1240 1413 1623 1480 1398 1149 1296 1248 1192 891 1099 967 1052 1235 1429 1672 1762 1592 1507 1451 1271 1307 1426 1622 1764 1669 1698 1744 1542 1481 1519 1603 1497 1479 1466 1285 1219 1217 1179 1124 1216 1245 1299 1367 1475 1598 1661 1625 1748 1758 1774 1817 1761 1779 1804 1786 1788 1782 1706 1672 1768 1779 1755 1781 1803 1778 1619 1553 1487 1461 1460 1454 1452 1461 1581 1671 1697 1646 1581 1544 1518 1494 1482 1476 1504 1657 1481 1473 1447 1450 1461 1448 1462 1419 1419 1410 1389 1403 1397 1397 1424 1418 1377 1417 1404 1410 1461 1676 1739 1734 1703 1698 1695 1690 1710 1702 1665 1661 1671 1657 1666 1672 1678 1709 1726 1732 1714 1703 1699 1712 1772 1741 1745 1719 1826 1918 1982 1932 1873 1805 1764 1729 1686 1676 1697 1753 1752 1682 1658 1660 1655 1628 1607 1565 1518 1504 1496 1494 1495 1484 1474 1425 1398 1415 1436 1369 1373 1360 1351 1349 1349 1360 1353 1359 1349 1337 1326 1320 1318 1317 1318 1318 1315 1318 1316 1316 1315 1314
