ncols 211
nrows 85
xllcorner 74.025
yllcorner 35.9333333333
cellsize 0.0083333333333
NODATA_value -9999
-9999 -9999 -9999 -9999 -9999 -9999 -9999 -9999 -9999 -9999 -9999 -9999 -9999 -9999 -9999 -9999 -9999 -9999 -9999 -9999 -9999 -9999 -9999 -9999 -9999 -9999 -9999 -9999 -9999 -9999 -9999 -9999 5532 6110 6393 6113 6262 5961 6090 6791 6658 6366 5814 5036 4996 5259 5944 5931 6031 6353 6331 6019 5391 5702 5434 5185 5266 4938 4501 4098 3889 4133 4714 4630 5025 4679 4298 4686 5313 4766 4408 4191 4771 4793 4981 4940 4856 5070 5238 5388 5248 5283 5624 5176 4835 4774 4612 4584 4242 3918 3698 3991 4433 4633 4018 3622 3261 2927 2786 3033 3298 3295 3841 3633 3594 3360 3576 3310 3301 3524 4018 3797 4098 4465 4688 4936 5292 5612 5299 4913 4835 4699 4752 4887 5116 5158 5244 5184 5159 4939 4762 4764 4780 4703 4943 4594 4329 4025 4203 4708 5177 5193 4746 4194 4554 5037 5234 5458 5177 4899 5156 4722 4452 4551 4649 4835 4658 4393 4420 4226 4198 4198 4213 4372 4261 4202 4203 4203 4498 5023 5261 5186 5219 5495 5782 5272 5681 5604 5353 5529 5245 5475 5701 5578 5556 5923 -9999 -9999 -9999 -9999 -9999 -9999 -9999 -9999 -9999 -9999 -9999 -9999 -9999 -9999 -9999 -9999 -9999 -9999 -9999 -9999 -9999 -9999 -9999 -9999 -9999
-9999 -9999 -9999 -9999 -9999 -9999 -9999 -9999 -9999 -9999 -9999 -9999 -9999 -9999 -9999 -9999 -9999 -9999 -9999 -9999 -9999 -9999 -9999 -9999 -9999 -9999 -9999 -9999 -9999 -9999 -9999 -9999 -9999 -9999 -9999 6430 5926 5863 5682 5887 5822 5869 5446 5359 4901 4921 5459 5272 5557 5768 5397 5409 5113 5133 4966 4864 4966 4577 4633 4078 3831 4148 4352 4240 4464 4242 4168 4470 4752 4589 4044 4059 4278 4512 4601 4558 4885 4706 4905 4824 4967 5161 5535 4992 4790 4663 4470 4264 4107 4014 4255 4788 5357 4892 4424 4017 3811 3154 2786 2973 3330 3161 3187 3030 3030 3120 3120 3269 3454 3430 3490 3818 4117 4439 4586 4911 5464 5439 5315 5465 5137 4761 4782 5301 5181 5193 5250 5230 4611 4596 4685 4665 4344 4281 4281 4281 4281 4402 4138 4689 5177 4973 4635 4223 4898 5362 5522 5396 5396 5038 5153 5145 4573 4859 4846 5282 4710 4602 5021 4704 4408 4313 4198 4198 4202 4290 4272 4203 4650 4874 5091 5213 5284 5449 5515 5488 5211 5398 5705 5681 5400 5548 5648 5868 5576 5751 -9999 -9999 -9999 -9999 -9999 -9999 -9999 -9999 -9999 -9999 -9999 -9999 -9999 -9999 -9999 -9999 -9999 -9999 -9999 -9999 -9999 -9999 -9999 -9999 -9999
-9999 -9999 -9999 -9999 -9999 -9999 -9999 -9999 -9999 -9999 -9999 -9999 -9999 -9999 -9999 -9999 -9999 -9999 -9999 -9999 -9999 -9999 -9999 -9999 -9999 -9999 -9999 -9999 -9999 -9999 -9999 -9999 -9999 -9999 6672 6616 6475 5747 5535 5361 5290 5511 5311 5224 4777 4810 5220 5082 5206 5580 5673 4999 4895 4681 4678 4728 4457 4322 4060 3854 3765 3760 3891 3976 4009 3778 4025 4213 4312 3892 3892 3975 4049 4243 4320 4375 4432 4505 4584 4810 4865 4935 5252 5197 5486 5399 5301 4935 4572 4479 4527 4270 4574 4488 4663 4452 4020 3387 2788 2786 2802 2893 3030 3376 3525 3319 3579 3706 3865 3456 3824 3544 3802 4017 4434 4754 5090 5458 5603 5257 5013 5104 5008 4940 5249 5968 6122 5783 4997 4503 4446 4414 4371 4333 4297 4497 4613 4796 4204 4545 5012 5114 4624 4286 4710 5225 5737 5366 5410 5741 5417 5201 4720 4885 5489 5214 4769 4830 5233 4683 4851 4711 4247 4594 4730 4783 4855 4364 4337 4337 4428 4524 4639 4889 4989 4909 4967 5112 5221 5315 5398 5544 5489 5546 5472 5459 5477 5530 -9999 -9999 -9999 -9999 -9999 -9999 -9999 -9999 -9999 -9999 -9999 -9999 -9999 -9999 -9999 -9999 -9999 -9999 -9999 -9999 -9999 -9999 -9999
-9999 -9999 -9999 -9999 -9999 -9999 -9999 -9999 -9999 -9999 -9999 -9999 -9999 -9999 -9999 -9999 -9999 -9999 -9999 -9999 -9999 -9999 -9999 -9999 -9999 -9999 -9999 -9999 -9999 -9999 -9999 -9999 -9999 6274 5885 5747 5603 6022 6045 5334 5008 4905 4843 4779 4735 4778 4916 4950 5329 5160 5399 5010 4508 4403 4362 4196 4081 3865 3785 3773 3756 3747 3719 3684 3663 3645 3666 3786 3757 3925 4645 4769 4731 4644 4851 4883 4531 4511 4584 4661 4893 5489 4969 4844 5239 5021 4987 4838 5150 4875 4507 4019 3720 3765 4263 4741 4428 3629 3107 2793 2786 2819 3151 3768 4122 3724 4039 3957 4026 3559 3859 4014 3838 3813 3899 4396 4673 4963 5639 5477 5606 5918 5697 5521 5444 5979 6862 6197 5610 5041 4708 4601 4601 4745 4494 4717 5174 4650 4409 4433 4960 5398 5021 4454 4503 5005 5354 5893 5491 5190 5079 4940 4824 5276 5891 5344 4859 5073 5106 4710 5292 4696 4391 4434 5067 5151 4866 4555 4994 4795 4781 4823 4770 4639 4639 4732 5095 5446 5719 5977 5728 5612 5640 5346 5342 5356 5461 5601 -9999 -9999 -9999 -9999 -9999 -9999 -9999 -9999 -9999 -9999 -9999 -9999 -9999 -9999 -9999 -9999 -9999 -9999 -9999 -9999 -9999 -9999 -9999
-9999 -9999 -9999 -9999 -9999 -9999 -9999 -9999 -9999 -9999 -9999 -9999 -9999 -9999 -9999 -9999 -9999 -9999 -9999 -9999 -9999 -9999 -9999 -9999 -9999 -9999 -9999 -9999 -9999 -9999 -9999 -9999 5813 5623 5433 5371 5317 5255 5232 5103 5051 4967 5103 4782 4614 4590 4655 5149 4800 4736 4965 4633 4357 4032 3912 3876 3856 3821 3799 3774 3762 3720 3689 3683 3656 3641 3647 3621 3641 3876 4526 4556 4656 4745 5418 4825 5168 5726 5286 5380 5551 5081 4638 4591 4850 4609 4714 4247 4117 4055 4196 4036 3474 3328 3698 4300 4247 4097 3916 3473 2786 2863 3532 3961 4386 4121 4464 4532 4045 3736 4039 4474 4309 4118 4084 4212 4702 5027 5258 5397 5628 5407 5749 5792 5947 5928 6113 6231 5608 5535 5353 5307 4900 4879 4682 4903 5185 4699 4651 4409 4619 5060 5544 4900 4454 4803 5357 5769 5817 5827 5422 5054 5329 5899 5481 5028 5012 5309 4937 5272 4946 5053 4622 4391 4804 5388 5049 4704 5245 5353 5031 4977 5249 4950 5018 4838 4805 5250 5364 5567 5464 5460 5590 5270 5203 5372 5823 5841 5601 5573 -9999 -9999 -9999 -9999 -9999 -9999 -9999 -9999 -9999 -9999 -9999 -9999 -9999 -9999 -9999 -9999 -9999 -9999 -9999 -9999 -9999
-9999 -9999 -9999 -9999 -9999 -9999 -9999 -9999 -9999 -9999 -9999 -9999 -9999 -9999 -9999 -9999 -9999 -9999 -9999 -9999 -9999 -9999 -9999 -9999 -9999 -9999 -9999 -9999 -9999 -9999 -9999 5547 5419 5528 5942 5860 5587 5361 5161 5110 5066 5164 4867 4728 4494 4494 4359 4275 4230 4339 4446 4254 3984 3953 3934 3891 3844 3831 3838 3885 4420 4872 4291 3863 3716 3662 3636 3612 3588 3585 3762 4216 4382 4983 4657 4749 5156 5364 5009 5139 5193 5051 4743 4350 4082 4032 4256 3906 3694 3575 3677 3750 3587 3054 3654 3871 3866 3390 3267 2786 2786 3247 3670 4485 4734 4420 4947 4461 3948 3903 4205 4689 4796 4685 4274 4500 4396 4771 5059 4954 5046 5172 5250 5540 5401 5586 5463 5363 5626 5302 5290 5253 5485 4958 4914 5014 5244 5065 4766 4517 4604 4824 5117 4752 4535 4489 5039 5263 5474 5724 5282 5179 5594 5271 5191 5517 5414 5106 5160 5267 5371 4943 4766 4405 4722 5111 5213 4832 5102 5489 5384 5133 5190 5135 5470 5043 4818 5332 5611 5388 5640 5290 5190 5218 5069 5170 5226 5323 5418 5493 -9999 -9999 -9999 -9999 -9999 -9999 -9999 -9999 -9999 -9999 -9999 -9999 -9999 -9999 5962 -9999 -9999 -9999 -9999 -9999 -9999
-9999 -9999 -9999 -9999 -9999 -9999 -9999 -9999 -9999 -9999 -9999 -9999 -9999 -9999 -9999 -9999 -9999 -9999 -9999 -9999 -9999 -9999 -9999 -9999 5680 5249 5270 5339 5459 5354 5109 4942 4994 5113 5365 6263 6390 6281 6030 5876 5966 6150 5467 4786 4513 4446 4358 4307 4218 4151 4129 4070 4024 3970 4188 4506 4400 3891 3890 4134 4804 5244 4518 4579 4216 4063 3778 3577 3573 3565 3549 3750 3997 4382 4132 4623 5276 4605 4552 4699 5149 4874 5101 4899 4078 3726 3584 3411 3235 3123 3022 3004 3319 3110 3054 3375 3186 2786 2786 2824 2976 3612 4065 4438 5142 5283 4715 4345 4009 4183 4515 4981 4826 4448 4405 4686 4685 4607 4776 4952 5154 5222 5412 5227 4920 5052 5075 5600 5154 5017 4916 5250 5620 5265 5407 5445 5559 5469 5142 4849 4721 5085 5195 4749 4996 4607 4524 4826 5365 5232 5792 5783 5866 5839 5476 5324 5280 5454 5461 5257 5249 5196 4810 4456 4906 5507 5210 4973 5253 5225 5570 5369 5340 5713 5514 5102 4951 5059 5200 5489 5541 5319 5137 4948 4936 5060 5282 5393 5601 5717 5571 -9999 -9999 -9999 -9999 -9999 -9999 5776 5573 5654 5841 5687 5569 6010 5630 -9999 -9999 -9999 -9999 -9999 -9999
-9999 -9999 -9999 -9999 -9999 -9999 -9999 -9999 -9999 -9999 -9999 -9999 -9999 -9999 -9999 -9999 -9999 -9999 -9999 -9999 -9999 -9999 -9999 5899 5141 4896 4759 4694 4807 4680 4728 4833 5249 5765 5989 5642 5317 5204 5098 5083 5194 5498 5917 5314 5159 4815 4597 4749 4544 4281 4112 4080 4130 4334 4510 5010 4358 3992 3965 4146 4553 5070 5466 5504 5054 4715 4332 3734 3557 3533 3543 3485 3585 3872 4134 4600 4717 4224 4075 4274 4936 4664 4490 4744 5099 4705 4344 3841 3770 3778 3643 3043 2761 2750 2786 2786 2786 2786 2881 3125 3507 4096 4744 4692 5455 5898 4971 4510 4146 4456 5035 4702 4579 4598 4840 4765 4584 4793 4883 4572 4532 4619 4910 4865 4623 4500 4953 5243 5430 5116 4821 4696 5278 5430 4947 5178 5114 5579 5781 5155 4886 4981 5373 4897 5172 5099 4752 4609 4858 5213 5288 5720 5780 5555 5750 5647 5465 5372 5630 5220 5069 4951 4677 4599 5102 5551 5312 5117 5109 5423 5764 5480 5414 5325 5207 5119 5067 5510 5535 5447 5605 5284 4980 4783 4851 5515 5363 5455 5489 5523 5440 5464 5390 5560 5572 5518 5498 5784 5504 5459 5542 5872 5483 5484 5674 5733 -9999 -9999 -9999 -9999 -9999
-9999 -9999 -9999 -9999 -9999 -9999 -9999 -9999 -9999 -9999 -9999 -9999 -9999 -9999 -9999 -9999 -9999 -9999 -9999 -9999 -9999 -9999 -9999 5599 5462 4961 4546 4453 4442 4545 5168 5741 6212 5530 5430 5233 4785 4791 4721 4811 4981 5848 6674 6404 6223 5745 5621 5452 4935 4742 4585 4763 4623 5021 5585 5096 4555 4320 4100 4217 4590 5267 5591 5256 5317 5119 4725 4170 3587 3553 3511 3500 3467 3602 3833 4225 4210 3834 4090 4591 4495 4260 4118 4507 4808 4428 4661 4767 4401 3648 3277 2756 2750 3051 3492 3152 3108 3249 3551 3676 3655 4102 4535 4849 5203 5696 5288 4408 4281 4677 5045 4881 5081 5171 4777 4243 4121 4450 4463 4026 4071 4282 4811 4636 4081 4258 4866 5062 5202 5349 5263 4774 4475 4994 4826 4772 4849 5301 5629 5041 5271 5214 5373 5047 5004 5112 4828 4948 4707 4804 5070 5484 5324 5372 5638 5756 5369 5259 5177 5177 5156 4911 4681 4980 5528 5836 5348 5222 5294 5392 5407 5512 5497 5509 5467 5349 5178 5580 5449 5176 5174 5196 5115 4602 4925 5478 5364 5676 5382 5825 5469 5278 5273 5535 5506 5675 5416 5534 5592 5380 5576 5626 5368 5355 5894 5919 5641 -9999 -9999 -9999 -9999
-9999 -9999 -9999 -9999 -9999 -9999 -9999 -9999 -9999 -9999 -9999 -9999 -9999 -9999 -9999 -9999 -9999 -9999 -9999 -9999 5465 5186 4981 5158 5215 5352 4697 4358 4274 4801 4876 5527 5480 5511 5088 4975 4652 4492 4473 5011 5548 6477 6321 6093 5733 5733 6237 5518 5560 5679 5769 5681 5599 5800 5716 5532 4881 4752 4980 5369 5526 5858 5137 4865 4758 4602 4390 3982 3743 3941 3472 3479 3471 3434 3544 3843 3898 3643 4061 4219 4138 3883 3806 3961 4042 4053 4067 4542 4572 3783 3308 2772 2750 3372 3945 3864 4082 4498 4476 4518 4403 4159 4241 4428 4742 5173 5317 5218 5284 5599 5344 5222 5229 4664 4281 3987 3828 4041 4180 3677 3915 4482 4720 4206 3778 4280 4706 4651 4800 5146 5452 4974 4542 4379 4676 5345 5346 4974 5111 5546 5683 5730 5638 5534 5225 5093 5036 5042 5041 4990 4850 4986 5205 5363 5536 5548 5558 5700 5520 5237 4978 4808 4775 5081 5281 5515 5399 5685 5185 5492 5222 5386 5637 5534 5383 5267 5275 5533 5188 5045 4962 4814 4765 4528 4748 5024 5136 5257 5258 5540 5384 5128 5240 5613 5394 5381 5353 5273 5442 5261 5218 5210 5228 5271 5355 5405 5528 -9999 -9999 -9999 -9999
-9999 -9999 -9999 -9999 -9999 -9999 -9999 -9999 -9999 -9999 -9999 -9999 -9999 -9999 -9999 -9999 -9999 -9999 -9999 5667 5215 4621 4535 4643 4652 4795 5087 4569 4004 4098 4578 5214 4978 4907 5062 4814 4240 4275 4507 5097 5507 5442 4945 4976 4784 4778 5229 6532 6757 6230 6517 6739 5988 5740 5666 5431 5223 5248 5377 5522 5651 5740 4964 4709 4495 4445 4468 4594 4683 4771 4169 3448 3428 3425 3405 3371 3371 3368 3387 3504 3677 3519 3407 3384 3437 3512 3899 4348 4579 4125 3566 3035 2750 2789 3328 3803 4266 4767 5222 5053 5066 5263 5171 5271 5253 5234 4942 5138 5658 5638 4998 4639 4929 4664 4117 3572 3332 3646 3706 3392 4080 4301 4214 3699 3605 4292 4059 4305 4612 5121 5635 5205 4743 4266 4360 4911 5494 5354 5367 5446 5764 5518 5309 5228 5322 5559 5273 5226 5155 5635 5173 4977 5110 5344 5597 5595 5273 5414 5117 4972 4869 4916 5105 5163 5272 5499 5307 5105 5045 4993 5159 5428 5667 5499 5475 5375 5506 5398 5150 5204 5252 4994 5004 4650 4435 4584 4851 5021 5113 5246 5145 4959 5277 5570 5505 5277 5294 5254 5147 5101 5098 5139 5239 5305 5482 5512 5676 -9999 -9999 -9999 -9999
-9999 -9999 -9999 -9999 -9999 -9999 -9999 -9999 -9999 -9999 -9999 -9999 -9999 -9999 -9999 -9999 -9999 -9999 -9999 5454 4943 4456 4208 4309 4290 4419 4637 4829 4203 3888 4035 4511 4632 4489 4701 4356 4148 4374 5077 5487 4747 4609 4349 4382 4404 4474 5069 6626 5859 5409 5508 6314 6699 6502 6357 6219 5983 5720 5763 5515 5619 5791 5729 5381 5009 5242 5498 5105 4725 4266 3929 3521 3431 3420 3397 3404 3357 3328 3325 3313 3278 3268 3240 3220 3199 3208 3621 4124 3999 4288 3873 3313 2818 2750 2750 3314 4076 4658 4319 4085 4719 4559 4359 4629 4586 4386 4511 5258 5323 5543 4611 4263 4338 4354 4213 3674 3048 3183 3155 3406 3779 3505 3489 3131 3702 4000 3840 4201 4563 5036 5141 5383 4989 4555 4102 4433 4887 5713 5862 5165 5100 5221 4953 5104 5025 5007 5320 5435 5409 5802 5190 5100 5117 5502 5606 5402 5139 4957 4977 5014 5286 5318 5119 5185 5332 5371 5204 4991 4752 4742 4856 5085 5312 5735 5714 5661 5325 5259 5219 5481 5198 5147 4840 4971 4731 4381 4535 4662 4698 4744 4817 4988 5111 5471 5731 5249 5171 5324 5019 5004 5091 5226 5364 5443 5496 -9999 -9999 -9999 -9999 -9999 -9999
-9999 -9999 -9999 -9999 -9999 -9999 -9999 -9999 -9999 -9999 -9999 -9999 -9999 -9999 -9999 -9999 -9999 -9999 -9999 5193 4649 4143 4060 3930 3842 4068 4162 4137 4224 3944 3762 3847 4068 4111 4005 4004 4075 4551 5162 4841 4534 4346 4207 4256 4317 4605 5217 6004 5312 4923 4982 5490 6148 6918 7243 6994 6837 6970 6992 6696 6537 6343 6519 6246 5947 5621 5551 5015 4435 4144 3798 3550 3481 3481 3384 3373 3356 3353 3329 3308 3281 3267 3251 3224 3210 3182 3168 3396 3471 3534 3981 3837 3390 3125 2750 2950 3503 3840 3630 3658 4035 3920 3744 3764 4095 3949 4535 4596 5550 5503 4720 4151 3792 3801 4141 3681 3219 2871 2871 2871 2966 2966 2966 3046 3590 3366 3835 4379 4771 4922 4720 5131 5109 4566 4031 4288 4576 5084 5246 4761 4867 5445 5507 4953 4554 5049 4986 5135 5485 5430 5382 5565 5232 5438 5245 4918 4799 4773 5349 5116 5412 5365 5432 5674 5619 5427 5456 5031 4862 4583 4927 5037 5343 5467 5498 5510 5388 5434 5290 5659 5679 5154 5042 5263 5119 4584 4353 4654 4979 5119 5069 5177 5424 5301 5445 5149 5102 4915 4902 4989 5295 5714 5367 5622 5601 -9999 -9999 -9999 -9999 -9999 -9999
-9999 -9999 -9999 -9999 -9999 -9999 -9999 -9999 -9999 -9999 -9999 -9999 -9999 -9999 -9999 -9999 -9999 -9999 -9999 5432 4760 4446 4514 4099 3784 3679 3586 3606 3554 3654 3687 3750 3810 3887 3997 4077 4418 5021 4803 4619 4372 4126 4157 4295 4982 5710 5999 5549 5016 4759 4609 4781 5372 6017 6796 7090 7456 7544 7161 6935 6711 6248 6109 5880 5571 5369 5139 4780 4481 4146 3711 3632 3537 3594 3967 3520 3348 3333 3349 3302 3280 3313 3257 3194 3194 3178 3165 3135 3122 3108 3178 3529 3816 3290 2750 2750 2750 2811 2835 2754 2850 2961 2952 3185 3488 3434 4260 4929 5386 5150 5078 4781 4000 3482 3808 3338 2924 2871 2871 2871 2976 3260 3178 2966 2966 3303 3655 3900 4145 4202 4504 5038 5008 4526 3946 4202 4605 5055 4628 4292 4953 5188 4918 5415 4532 4416 5022 5578 5375 4953 5009 5171 5099 5338 5184 4846 4576 4742 5083 5385 5519 5353 5063 5044 5065 4993 5240 5337 5006 4501 4748 5059 5379 5462 5534 5943 5552 5452 5713 5464 5301 5178 5352 5032 4737 4518 4341 4760 4886 5119 5410 5287 5619 5724 5738 5235 4801 4779 5074 5538 5267 5591 5656 5732 5825 -9999 -9999 -9999 -9999 -9999 -9999
-9999 -9999 -9999 -9999 -9999 -9999 -9999 -9999 -9999 -9999 -9999 -9999 -9999 -9999 -9999 5685 4982 5025 5289 5088 4930 4732 4599 4408 4153 3997 3439 3488 3561 3608 3713 4219 4431 4518 4806 5056 5342 5090 4551 4256 4056 4106 4244 4631 5274 5664 5529 5103 4552 4400 4475 4619 4958 5350 5778 5985 6628 7486 7462 7112 7030 6518 6127 5831 5579 5437 5153 4760 4531 4311 3968 3931 3929 4074 4470 3847 3619 3669 3438 3466 3812 3791 3837 3625 3241 3152 3148 3139 3120 3100 3082 3060 3320 3554 3294 2967 2750 2750 2726 2640 2602 2634 2687 2708 2893 3246 4094 4752 4992 4582 4582 4509 3979 3198 3049 2871 2871 3068 2898 3138 2871 3004 3378 3297 3049 2966 2967 3362 3739 4239 4645 4955 4664 4138 3634 4044 4662 4728 4188 3860 4160 4533 4735 5184 4518 4416 4890 5072 5144 5113 4579 4822 5328 5277 5213 5159 4576 4615 4721 4982 5251 4941 4851 4733 4685 4872 4746 4849 4925 4416 4733 5122 5251 5494 5471 5322 5718 5544 5376 5735 5484 5491 5355 5176 5130 4767 4341 4560 4680 4754 5073 5350 5669 5353 5242 5004 4646 4884 5443 5709 5629 5665 5868 5857 -9999 -9999 -9999 -9999 -9999 -9999 -9999
-9999 -9999 -9999 -9999 -9999 -9999 -9999 -9999 -9999 -9999 -9999 5620 5119 5017 5124 5028 4823 4878 4827 4844 4673 4517 4650 4443 4058 3414 3418 3861 4127 4215 4193 4274 4608 5169 5590 5000 4932 4667 4237 3956 4010 4277 4790 5504 5531 4913 4777 4828 4568 4299 4459 4780 5069 4905 4779 5278 6110 6938 7530 7606 7286 6662 6581 6342 5956 5789 5431 4947 4688 4588 4359 4297 4462 4392 4731 4299 4447 3920 4040 3931 4417 4439 4250 4163 3741 3335 3164 3124 3112 3091 3059 3048 3041 3000 3222 3490 3447 3398 2819 2670 2602 2602 2602 2604 2630 3114 3685 4090 4178 4206 3807 3680 3135 2871 2871 2943 2871 3214 3496 2994 3575 3239 3004 3318 3723 3189 2966 2981 3395 3859 4331 4521 4336 3737 3503 4116 4661 4703 4097 3499 3898 3770 4131 4005 3740 4090 4733 4751 4288 4409 4547 5209 5117 4855 4753 4643 4559 4431 4770 5076 5134 4890 4804 5136 4823 4617 4541 4489 4489 4416 4837 4832 4978 5081 5144 5031 5210 5656 5219 5272 5377 5537 5236 5042 4784 4502 4341 4565 5008 4917 4900 5283 5524 5527 5219 4758 4646 5029 5614 5733 5414 5541 5621 -9999 -9999 -9999 -9999 -9999 -9999 -9999 -9999
-9999 -9999 -9999 -9999 -9999 -9999 -9999 -9999 -9999 -9999 -9999 5196 4913 4814 4803 4694 4750 4766 4694 4570 4464 4252 4027 3938 3438 3323 3547 4103 4498 4780 4742 4936 5266 5145 5078 4680 4445 4382 3998 3912 4137 4755 5333 5800 5098 4706 4540 4469 4381 4209 4394 4843 4716 4506 4591 5059 5691 6253 6471 6826 6946 7341 7059 7307 6716 6369 5679 5359 5326 5282 4673 4635 4979 5185 5432 5442 5090 4844 4827 4793 4746 4959 4720 4496 4163 3897 3810 3562 3341 3286 3052 3031 3010 2998 2960 2927 2855 2834 2791 2650 2602 2602 2602 2602 2602 2835 3075 3367 3450 3718 3328 2729 2763 3234 3391 3193 3223 3611 3959 3222 3523 3793 3213 3004 3499 3711 3316 2966 3026 3582 3847 3980 3903 3223 3569 3968 4113 4181 3872 3424 3232 3345 3399 3230 3255 3751 4058 3794 4075 4524 4786 5337 5150 5109 5001 4870 4671 4364 4541 4947 5283 5347 5043 5313 5067 5074 5007 4913 4623 4416 4416 4447 4567 4625 4743 4865 5017 5318 5440 5036 5078 5417 5703 5362 4939 4418 4341 4753 5254 5443 5134 5168 5479 5363 5045 4686 4646 5187 5641 5226 5308 5629 -9999 -9999 -9999 -9999 -9999 -9999 -9999 -9999 -9999
-9999 -9999 -9999 -9999 -9999 -9999 -9999 -9999 -9999 -9999 -9999 5570 5116 4838 4656 4576 4609 4560 4480 4270 4091 3726 3533 3305 3216 3244 3345 3725 4016 4351 4827 4829 4581 4587 5024 4511 4254 4185 3849 3838 3939 4569 5221 5328 5551 5398 5181 4714 4205 4143 4107 4304 4337 4305 4760 5397 5839 5994 5878 5693 6143 6632 6471 6700 7125 6810 6402 6450 6307 5862 5467 5398 5668 6072 6370 6395 6061 5771 5892 5932 5471 5509 5304 4913 4567 4552 4422 4288 3965 3845 3465 3288 3054 2990 2933 2908 2889 2858 2886 3192 2952 2606 2602 2602 2602 2694 2694 2713 3162 3061 2729 2729 3212 3823 3923 3317 3272 3707 3830 3269 3716 4109 3572 3084 3267 3900 3756 3189 2966 2966 3175 3292 3458 3372 3154 3414 3298 3204 3134 3049 2986 2986 2986 2986 2986 3270 3367 4051 4352 4778 5033 5512 5438 5531 5467 5301 4723 4618 4243 4363 4861 5297 5296 4991 4716 4806 4636 4734 4993 4824 4644 4416 4222 4253 4408 4808 4844 5205 5203 5156 4838 5149 5373 5101 4710 4347 4341 4805 5177 5432 5442 5563 5224 5030 4943 4614 4621 5007 5025 5106 5540 5581 -9999 -9999 -9999 -9999 -9999 -9999 -9999 -9999 -9999
-9999 -9999 -9999 -9999 -9999 -9999 -9999 -9999 -9999 -9999 -9999 5712 5129 4874 4680 4430 4244 4099 4269 3826 3559 3490 3436 3521 3343 3148 3137 3340 3920 4292 4592 4614 4348 4265 4669 4855 4692 4567 4087 3747 3774 4239 4772 4608 5152 5476 5478 5310 4438 4095 4086 4139 4189 4288 4703 5330 5771 5455 5248 5261 5474 5849 5776 5745 5682 6065 6895 7430 7331 7051 6830 6680 6747 6831 6787 6266 5889 5251 5139 5133 5095 4973 4518 4347 4247 4269 4320 4335 4452 4423 4166 3866 3630 3502 3274 3104 3056 3164 3121 3164 3232 2602 2602 2602 2602 2773 3145 2694 2694 2729 3126 3486 3780 4100 3978 3272 3631 4164 4057 3364 3820 4149 3828 3260 3192 3873 4261 3733 3260 3034 2966 2966 2966 2966 2966 2986 2986 2986 2986 2986 2986 3016 3069 3087 3134 3030 3456 3791 3877 4299 4832 4937 5031 5611 5105 4967 5272 5015 4311 4141 4267 4573 4999 4917 4515 4517 4349 4674 4790 4421 4467 4887 4498 4068 4309 4413 4848 4950 4773 4970 4658 4958 4840 5061 4710 4232 4443 4914 5324 5636 5690 5440 5026 4667 4489 4530 4774 4989 5090 5454 5361 -9999 -9999 -9999 -9999 -9999 -9999 -9999 -9999 -9999 -9999
-9999 -9999 -9999 -9999 -9999 -9999 -9999 -9999 -9999 -9999 -9999 5451 5176 5025 4799 4563 4417 4151 3849 3710 3870 3896 3963 4111 3688 3346 3090 3151 3526 3945 4316 4164 4065 4104 4308 4738 4705 4490 4297 3640 3606 3881 4227 4190 4805 5024 4583 4534 4163 4031 4034 4785 4881 5000 5176 5661 5284 4896 4701 4735 4972 5510 5154 5129 5093 5348 5821 6364 6761 7166 7116 6938 6830 6766 6706 6703 5837 5399 5136 5038 5016 4740 4482 4359 4246 4158 4143 4112 4062 4176 4231 4290 4301 4129 3948 3754 3768 3758 3391 3037 3364 3034 2602 2602 2602 2602 2965 3296 3127 3481 4009 4186 4588 4563 4028 3312 3781 4317 3944 3488 3894 4148 4246 3472 3234 3762 4349 4165 3878 3683 3440 3429 3341 3424 3413 3350 3276 3465 3459 3543 3280 3265 3222 3156 3249 3030 3160 3523 3783 4153 4645 4358 5006 4956 5359 5376 4956 4895 4939 4299 4070 4174 4453 4718 4608 4155 4232 4578 4629 4329 4223 4451 4545 3943 4100 4252 4482 4455 4422 4605 4486 4550 4329 4424 4444 4115 4521 4744 4952 4979 5202 5089 4816 4433 4490 5010 5225 5275 5333 5699 -9999 -9999 -9999 -9999 -9999 -9999 -9999 -9999 -9999 -9999 -9999
-9999 -9999 -9999 -9999 -9999 -9999 -9999 -9999 -9999 -9999 5529 5334 5173 4933 4690 4425 4144 3972 4052 4144 4259 4486 4526 4461 4130 3591 3185 3090 3269 3642 3740 3592 3620 3816 4008 4376 4217 3789 3598 3472 3485 3505 3665 3988 4401 4907 4662 4139 3950 3978 4050 4402 5134 6022 5677 5381 5179 4429 4200 4625 4860 5207 4808 4506 4718 4880 5278 6234 6047 5991 6084 6176 6175 6508 6360 6182 5717 5493 5261 5028 4943 4893 4688 4578 4409 4163 4123 4099 4023 3970 3876 3797 3915 3985 3870 3978 3782 3610 3720 3301 2930 3283 3400 2786 2602 2602 2970 3323 3558 3871 3809 4095 4567 4747 4004 3605 4059 4370 3922 3645 3996 4227 4372 3701 3307 3691 4260 4813 4351 4236 4074 3827 3625 3918 4050 3705 3586 4170 4221 4178 3824 3748 3363 3226 3269 3030 3088 3372 3635 3954 4193 4247 4712 4449 4854 5015 5244 4910 4331 4295 4036 4424 4788 4537 4191 3824 3956 4349 4249 4054 3923 3984 4048 3748 4007 4184 4178 4122 4078 4202 4059 4005 4005 4030 4077 4155 4170 4246 4329 4449 4603 4490 4430 4444 4771 4970 5142 5381 5437 5806 -9999 -9999 -9999 -9999 -9999 -9999 -9999 -9999 -9999 -9999 -9999
-9999 -9999 -9999 -9999 -9999 -9999 -9999 -9999 -9999 -9999 5584 5205 5038 4889 4730 4390 4251 4315 4397 4379 4554 4690 4943 4489 4236 3802 3309 3090 3090 3090 3173 3171 3344 3527 3612 3598 3278 3114 3180 3315 3405 3472 3534 3606 3689 4141 3906 3892 3910 4112 4528 5156 5637 6310 5423 4656 4594 4172 4079 4675 4624 4602 4410 4212 4315 4698 5365 6134 5259 5213 5274 5272 5350 5672 6359 6068 5953 5797 5333 5166 4976 4829 4832 4787 4801 4702 4657 4463 4425 4128 3813 3785 3728 3589 3509 3442 3300 3209 3112 2998 2920 2921 2982 2697 2602 2602 2602 2602 2819 3223 3551 3936 4413 4588 3917 3887 4454 4544 3959 3753 4009 4337 4442 3855 3357 3690 4296 4812 5104 4550 4609 4015 4158 4352 4435 3772 3798 4365 4643 4532 4510 4028 3494 3305 3289 3157 3030 3030 3193 3527 3640 4079 4235 4301 4354 4537 4630 4669 4277 3887 4431 4636 4812 4810 4316 3821 3726 4104 3846 3585 3585 3585 3585 3585 3660 3660 3867 3867 3867 3962 3993 4187 4397 4644 4352 4732 4671 4450 4405 4356 4359 4430 4632 4844 4704 4704 4848 5033 5156 5482 -9999 -9999 -9999 -9999 -9999 -9999 -9999 -9999 -9999 -9999 -9999
-9999 -9999 -9999 -9999 -9999 -9999 -9999 -9999 -9999 -9999 5412 5362 5223 4992 5218 4787 4411 4766 4987 4848 5052 4859 4569 4365 3974 3466 3338 3573 3232 3123 2864 2738 3004 2856 2856 2881 3114 3492 3970 3774 3841 3612 3547 3607 3655 3718 3775 3835 4187 5061 5697 6126 6666 6175 5369 4500 4159 3980 3970 4063 4006 4049 4117 4231 4551 5037 5672 6007 5199 4867 4602 4601 4806 5176 6124 6474 6145 5828 5679 5587 5363 5016 4903 4926 5428 5314 5141 5374 5054 4561 4499 4250 4071 3822 3607 3506 3298 3162 3132 2930 2887 2683 2602 2602 2602 2602 2602 2602 2602 3066 3570 3911 4453 4417 3892 4057 4624 4703 4112 3849 4048 4499 4616 3951 3430 3583 4050 4545 5144 5127 4690 4246 4660 4660 4490 3926 4110 4711 5106 4904 4421 3962 3518 3361 3528 3817 3463 3152 3030 3030 3119 3373 3546 3906 3805 4000 4108 4157 4039 3657 4313 4771 4758 4389 3799 3447 3534 3534 3585 3761 3795 3818 4054 4112 4155 4105 4247 4341 4420 4225 3977 4335 4475 4739 4813 4703 4956 4753 5059 4933 4909 4792 5105 5144 5023 4821 4704 4762 4994 5281 -9999 -9999 -9999 -9999 -9999 -9999 -9999 -9999 -9999 -9999 -9999
-9999 -9999 -9999 -9999 -9999 -9999 -9999 -9999 -9999 -9999 5217 5239 5127 5225 5117 4845 4864 5179 5412 5348 5050 4747 4425 4083 3766 3592 3683 4063 3905 3628 3371 2775 2738 3093 3344 3529 3811 3960 4273 4423 4477 4235 3834 3853 3718 3768 4120 4141 4861 5810 6229 6011 6120 6529 5910 5392 4601 4009 3899 3927 4081 4158 4168 4548 5056 5890 6310 5935 5318 4632 4110 3999 4370 4686 5161 5507 5938 6780 6622 6337 5814 5602 5765 6129 5851 5272 4964 4801 4777 4518 4670 4531 4335 4317 4278 4159 3914 3846 3704 3313 2860 2779 2823 2607 2602 2602 2602 2602 2709 3099 3414 3899 4712 4554 3892 4300 4823 4879 4291 3935 4119 4569 4782 4262 3667 3523 3967 4491 4956 5365 4858 4585 4966 4674 4616 4201 4477 4897 5377 4833 4343 3946 3714 3422 3496 4088 4053 3670 3514 3240 3132 3119 3119 3194 3325 3433 3389 3516 3566 3422 3778 3951 4246 4167 3447 3740 3993 3927 3849 4108 4559 4219 4247 4606 4589 4322 4436 4518 4381 4320 3980 4096 4400 4532 5006 4876 5140 5345 5319 5478 5139 5377 5420 5337 5073 4811 4704 4704 4720 -9999 -9999 -9999 -9999 -9999 -9999 -9999 -9999 -9999 -9999 -9999 -9999
-9999 -9999 -9999 -9999 -9999 -9999 -9999 -9999 -9999 -9999 5129 4835 4661 4549 4609 4520 4635 4874 4843 5076 4884 4653 4346 4029 3733 3720 4138 4334 4076 3990 3503 2817 2738 3438 3988 4170 4318 4524 4527 4706 4825 4228 4317 4567 4151 4237 4891 5414 5796 6183 5591 5324 5658 5452 5039 5024 4553 3803 3831 4099 4342 4706 5372 5417 5807 5806 5277 4956 4779 4651 4147 3899 3982 4148 4481 4993 5722 6509 7145 7129 6541 6424 5935 5682 5156 5055 4594 4413 4131 3995 4059 3986 3765 3601 3575 3557 3602 3714 3411 2944 2665 2751 2602 2602 2602 2602 2606 2700 2879 3268 3705 4313 4976 4305 4000 4474 4987 4866 4259 3999 4147 4605 5048 4490 3883 3609 3903 4350 4768 5332 5829 5449 5590 5324 4699 4400 4685 4894 5193 4892 4766 4408 3886 3480 3482 4022 4433 4255 3823 3874 3643 3319 3157 3226 3194 3194 3194 3194 3194 3194 3210 3359 3694 3735 3315 3821 4228 4474 4262 4345 4828 4691 4352 4795 5266 4625 4688 4785 4348 4209 4342 4235 4186 4186 4380 4580 4647 4768 5128 5216 5257 5326 5295 4948 4813 5008 5079 4858 4722 -9999 -9999 -9999 -9999 -9999 -9999 -9999 -9999 -9999 -9999 -9999 -9999
-9999 -9999 -9999 -9999 -9999 -9999 -9999 -9999 -9999 -9999 -9999 4877 4675 4458 4304 4106 4253 4375 4734 4835 5162 4620 4339 3964 3816 4090 4482 4282 4352 3755 3307 2738 2835 3418 3837 3711 3821 4034 4093 4479 5044 5006 4784 4629 4581 4674 5203 5924 6497 5836 5269 4956 5559 5252 4609 4165 3806 3747 3980 4332 4570 5179 5375 6078 6612 6006 5036 4600 4206 3925 3792 3783 3911 4348 5013 5150 5042 5610 6246 6816 6813 6398 5712 4866 4454 4315 4061 3856 3622 3325 3223 3186 3117 3084 3051 3018 2970 3110 3116 2866 2643 2613 2602 2602 2602 2759 2791 3327 3642 3840 4266 4827 4805 4190 4183 4712 5225 4860 4397 4060 4228 4713 5116 4480 3934 3685 3881 4431 4782 4976 5567 5972 5644 5198 4781 4554 4784 5019 5417 5072 4629 4195 4006 3565 3572 4109 4642 4545 4223 4055 4210 3655 3705 3555 3467 3359 3218 3194 3194 3194 3194 3194 3194 3194 3468 3821 4342 4737 4899 4872 4947 4649 4784 5014 5464 5250 5016 5148 4437 4436 4834 4665 4632 4637 4282 4282 4600 4487 4487 4726 4964 5148 5279 5081 5002 4903 5191 5036 4879 -9999 -9999 -9999 -9999 -9999 -9999 -9999 -9999 -9999 -9999 -9999 -9999
-9999 -9999 -9999 -9999 -9999 -9999 -9999 -9999 -9999 -9999 -9999 4871 4799 4516 3896 3929 4616 4517 4623 4960 4913 4461 4155 3920 3933 4403 4714 4313 4146 3867 3176 2540 2828 3161 3462 3800 4057 4115 4306 4543 5278 5355 4792 4682 4909 4988 5214 5667 6173 5533 4854 4699 5195 4605 4202 3714 3678 3801 4314 4710 5154 5508 6185 6327 6660 6125 5236 4706 4432 3877 3703 3721 4172 4473 4329 4300 4483 5031 5752 6643 6564 5961 5228 4788 4560 4487 4392 4273 3916 3636 3465 3270 3228 3213 3169 3023 2943 2917 2858 2822 2733 2734 2602 2689 3131 3291 3341 3122 3605 4100 4637 5290 4748 4206 4364 4833 5385 4875 4337 4138 4261 4778 5297 4748 4078 3753 3811 4475 4943 5182 5358 5387 5365 5566 5148 4680 4807 5046 5565 5212 4916 4516 4027 3670 3660 4119 4644 4910 4674 4664 4135 4112 3713 4014 4135 4116 3481 3927 3759 3513 3252 3194 3194 3194 3384 3714 4043 4371 4604 4946 5147 4857 4807 5185 5493 5354 5217 4680 4436 4755 4809 5027 5023 4396 4613 4282 4419 4794 4799 4907 4758 5148 5384 5214 5187 5031 5416 -9999 -9999 -9999 -9999 -9999 -9999 -9999 -9999 -9999 -9999 -9999 -9999 -9999 -9999
-9999 -9999 -9999 -9999 -9999 -9999 -9999 -9999 -9999 -9999 5166 4508 4162 3930 3808 4089 4559 5168 5483 5375 4733 4441 4150 3995 4346 4299 3983 3674 3360 3177 2947 2540 3166 3736 4030 4125 4417 4648 4761 5304 5270 5201 5071 5557 5594 5244 5486 5349 5393 5007 4722 4424 4336 4322 3778 3579 3575 4224 4736 5053 5099 5417 5499 5475 5662 6195 5687 5071 4605 3951 3635 3689 3840 3932 3993 4084 4216 4689 5422 6113 6536 6036 5726 5444 5273 5205 5254 5019 4626 4000 3859 3743 3644 3408 3347 3340 3392 3497 3307 2966 2665 2621 2602 2602 3315 3946 4051 3694 3872 4406 4938 5229 4750 4299 4511 5082 5566 4992 4408 4210 4362 4910 5330 4753 4271 3853 3978 4488 4568 4759 4928 4979 5121 5824 6070 5143 5510 5223 5003 5125 4766 4230 3835 3744 3737 4017 4415 4856 5274 4880 4507 4524 4131 4185 4678 4119 3861 4318 4353 4016 3878 3490 3194 3287 3194 3509 3797 4093 4614 4945 5606 5132 4926 5108 5451 5071 4757 4804 4472 4935 5334 4922 4620 4538 4549 4757 4286 4670 4787 5071 5149 5052 5143 5336 5173 5254 -9999 -9999 -9999 -9999 -9999 -9999 -9999 -9999 -9999 -9999 -9999 -9999 -9999 -9999 -9999
-9999 -9999 -9999 -9999 -9999 -9999 -9999 -9999 -9999 -9999 5151 4787 4130 3697 3766 4211 4583 5038 5174 5371 5299 4514 4143 4277 4719 4440 4156 4051 3888 3509 2823 2540 3123 3703 4349 4605 4927 4939 4730 4917 4671 4561 4489 4850 5662 5116 4930 5007 4880 4963 4804 4226 4076 4004 4172 3614 3523 3884 4282 4359 4625 4880 4977 4767 5080 5693 5256 4965 4676 4417 3736 3551 3689 3881 4130 4291 4786 4822 5441 6206 6965 6549 6443 6003 5775 5694 5181 4912 4564 4175 3873 3758 3856 3627 3453 3262 3089 3067 3155 2921 2620 2602 2602 2837 3220 3730 4322 4370 4258 4623 5056 5139 4744 4395 4605 5027 5582 5059 4428 4276 4453 5018 5306 4773 4279 3934 3950 4216 4523 4734 4953 5371 5981 6196 5576 5097 5186 5280 4840 4605 4259 4041 3983 3894 4270 4364 4274 4487 4771 5198 5150 4597 4257 4632 4587 4152 4264 4522 4663 4590 4251 4079 3561 3325 3297 3194 3475 3746 4102 4386 4894 5604 5138 4926 5610 5054 4947 5223 4627 5062 5236 4838 4595 4786 4927 4973 4480 4548 4762 4762 4862 5060 5470 5436 5407 5221 -9999 -9999 -9999 -9999 -9999 -9999 -9999 -9999 -9999 -9999 -9999 -9999 -9999 -9999 -9999
-9999 -9999 -9999 -9999 -9999 -9999 -9999 -9999 -9999 5365 4959 4545 4027 3595 3719 4115 4508 4693 4724 5215 5336 5144 5031 4861 4565 4247 4093 4196 3913 3438 2672 2540 3159 3767 4293 4322 4471 4384 4547 4247 4160 4186 4614 5093 5911 5728 5108 4699 4484 4730 4606 4512 4782 5172 4505 3926 3456 3405 3758 3967 4213 4255 4454 4357 4749 5068 4744 4553 4261 3857 3387 3517 3740 4126 4601 5082 5388 5697 6347 6974 6912 6981 7202 6737 6664 6553 6134 5768 5483 5077 4445 4233 4204 4291 4049 3791 3436 3130 2838 2749 2624 2602 2602 3099 3603 3980 4274 4937 4907 5146 5678 5234 4768 4484 4653 5041 5400 4926 4475 4333 4567 5180 5531 4873 4444 4215 3994 4042 4383 4967 5518 6071 6241 5765 5115 4807 4750 4608 4401 4240 4156 4093 4104 4239 4738 4885 4573 4460 4818 4920 5058 4797 4523 4932 5145 4463 4651 4701 5096 4930 4566 4200 3787 3385 3406 3210 3587 3965 4379 4774 5047 5065 5049 5430 5504 5402 5316 5162 4783 4968 5301 5346 4856 4729 5118 4881 4631 4664 4991 4883 4780 4789 5074 5627 5593 5316 -9999 -9999 -9999 -9999 -9999 -9999 -9999 -9999 -9999 -9999 -9999 -9999 -9999 -9999 -9999
-9999 -9999 -9999 -9999 -9999 -9999 -9999 -9999 5629 4973 4522 4340 4150 3518 3560 4062 4157 4420 4542 4710 5169 5344 5255 5116 4447 4160 3933 3520 3646 3087 2551 2411 3043 3491 3710 3873 4008 3864 3732 3707 3986 4406 4858 5278 5418 5222 4706 4289 4348 4664 4816 5179 5030 4871 4553 3788 3490 3340 3316 3395 3543 3806 3969 4065 4605 4905 4890 4646 3847 3283 3327 3656 4053 4391 4909 5450 6125 5872 6070 6057 5950 6213 6814 6814 6153 5807 5833 5955 6063 5784 5611 5036 4724 4657 4135 3795 3438 3250 2831 2641 2602 2602 2855 3499 3864 4158 4668 4661 5121 5088 5344 4955 4700 4530 4909 5075 5258 4686 4381 4405 4646 5128 5968 5578 5379 4942 4346 4107 4286 4994 5559 6034 6215 5425 5109 5066 4589 4356 4308 4311 4589 4347 4235 4599 5111 5539 4846 4794 5215 5565 5312 4749 4902 5112 5152 4720 4748 5190 5034 4805 4278 3819 3505 3476 3386 3320 3229 3693 3927 4327 4505 4425 4523 4986 4900 5188 5653 5419 4978 5312 5186 5858 5222 4893 5017 5283 4936 4631 4882 5521 5202 5053 5168 5152 5538 5820 -9999 -9999 -9999 -9999 -9999 -9999 -9999 -9999 -9999 -9999 -9999 -9999 -9999 -9999 -9999
-9999 -9999 -9999 -9999 -9999 -9999 -9999 -9999 5354 4704 4476 4218 3978 3475 3324 3576 4081 4152 4296 4846 4963 4686 4738 4865 4697 4196 4032 3816 3379 3104 2502 2357 2625 2760 2967 3221 3221 3320 3707 3991 4399 4704 4999 4876 4796 4296 3925 3961 4300 4753 4984 5028 5014 4853 4587 4557 3908 3614 3498 3178 3092 3326 3426 3850 4252 4601 4417 3953 3305 3102 3648 4117 4654 4518 5256 5994 5627 5211 5223 5048 5050 5593 6410 6107 5617 5293 5163 5199 5435 5156 5189 5266 4845 4530 4176 3614 3644 3547 2885 2602 2602 2602 2938 3634 4098 4214 4128 4405 4607 4844 5411 5403 4778 4650 4714 4972 5455 4789 4493 4571 4910 5491 6367 6445 5831 5007 4471 4177 4225 4835 5346 5887 6452 5678 5762 5746 5155 4893 4870 4945 4498 4488 4552 4874 5226 5253 5673 5496 5267 5640 5365 5194 5604 5381 5039 4996 5162 5021 4856 4323 3935 3516 3560 3600 3664 3281 3249 3254 3551 3760 3898 4081 4578 4609 4651 4949 5489 5465 5181 5472 5371 5528 5426 5177 5167 5490 5155 4790 4979 5037 5255 5464 5463 5414 5365 5260 -9999 -9999 -9999 -9999 -9999 -9999 -9999 -9999 -9999 -9999 -9999 -9999 -9999 -9999 -9999
-9999 -9999 -9999 -9999 -9999 -9999 5370 5120 4877 4793 4784 4515 4236 3859 3462 3324 3807 3624 4222 4695 4390 4251 4773 4521 4805 4759 4457 3949 3493 3127 2458 2315 3068 3511 3540 3595 3542 3607 4092 4712 4758 5424 5092 4476 4003 3778 3826 3987 4723 5351 5554 5101 4889 4796 4826 4328 4053 4100 3907 3546 3352 3092 3092 3425 3818 3992 3746 2962 2968 3543 3758 4131 4815 5539 5548 4939 4728 4631 4492 4565 5012 5301 5880 5437 5207 5027 4842 4812 4756 4732 5060 5059 4755 4374 4062 4245 4080 3642 2966 2602 2602 2602 2950 3470 3694 3542 4044 4531 4802 5049 5272 5474 5574 5343 5249 5551 5378 4920 4769 5124 5688 5993 6318 5663 5602 5340 4765 4241 4248 4857 5364 5780 6477 6528 6511 6535 6132 5696 5558 5036 4628 4654 4739 5003 5082 5480 5629 6212 5916 6118 6095 5587 5151 5054 5206 5427 4995 4555 4561 4252 3691 3596 3571 3990 4163 3786 3401 3274 3283 3300 3626 4273 4300 4198 4613 4999 5166 5301 5495 5157 4887 5364 5557 5242 5253 5556 5217 5189 5216 5021 5285 5255 5772 5848 5460 5321 5129 5075 5446 -9999 -9999 -9999 -9999 -9999 -9999 -9999 -9999 -9999 -9999 -9999 -9999
-9999 -9999 -9999 -9999 5020 4935 4861 4640 4584 4364 4526 4597 4602 4340 3757 3236 3281 3559 3949 4248 3771 4044 4301 4181 4496 4347 4499 4110 3638 3117 2559 2240 2888 3673 4138 4334 4264 4260 4292 4854 5174 4791 4555 4395 3916 3699 3794 4129 4679 5233 5716 5594 5367 4819 4686 4228 4301 4618 4144 4060 3724 3418 3133 2820 2760 2907 2836 2781 3419 3860 4539 4511 4913 4843 4761 4728 4409 4045 3991 4070 4162 4945 5143 5387 4911 4684 4469 4520 4524 4766 5221 5122 4994 4714 4467 4609 4167 3639 3171 2613 2602 2602 2838 2911 3043 3255 3717 3995 4268 4704 4986 5100 5383 5429 5992 5893 5682 5590 5669 5789 6066 6266 5881 5267 5002 4880 4665 4326 4310 4766 5180 5478 5965 6502 7054 6804 6320 6535 6279 5712 5055 5082 5429 5255 5176 5330 5704 5725 5659 5965 5836 6095 5651 5264 4867 4928 4902 4761 4263 3946 3626 3646 3776 4220 4520 4220 3935 3602 3315 3332 3322 3533 4108 4612 4897 5003 4724 5004 5020 4678 4870 5222 5260 5758 5628 5520 5531 5472 5441 5141 5409 5339 5851 5640 5607 5281 5307 5079 5011 5339 -9999 -9999 -9999 -9999 -9999 -9999 -9999 -9999 -9999 -9999 -9999
-9999 -9999 -9999 5162 5282 4673 4415 4252 4145 3910 4182 4289 4467 4598 4116 3601 3236 3123 3411 3863 3433 3873 3781 3929 4156 4108 4105 4078 3709 3244 2599 2184 2584 3195 3594 4085 4462 4803 5092 5060 4710 4569 4404 3967 3522 3585 4022 4585 4717 5300 5220 5392 5268 4922 4345 4290 4450 4782 4778 4397 4195 3932 3743 3281 2974 2628 2628 3386 4001 4407 4487 4982 4406 4187 3918 3991 4101 3730 3609 3856 4326 4888 4721 4695 4898 4449 4103 4345 4733 4840 4636 4594 4991 5033 4977 4380 4047 3614 3125 2602 2602 2602 3011 3510 3895 3653 3466 3782 4210 4554 4878 4999 5203 5495 5330 5664 6462 6482 6312 6436 6579 6827 6122 5442 5011 4923 4861 4483 4377 4546 4792 5196 5657 6366 6646 6900 6267 6262 6293 6084 5719 5514 5797 5584 5243 5330 5430 5515 5629 5730 5926 5677 5519 5314 5186 4774 4348 3983 3856 3705 3682 3734 4265 4506 4603 4519 4423 4151 3773 3458 3420 3458 3614 4053 4334 4477 4582 4808 4866 4320 4709 4739 5094 5238 5089 5441 5219 5260 5487 5799 5743 5535 5526 5880 5671 5611 5229 5329 5010 4937 5182 5479 -9999 -9999 -9999 -9999 -9999 -9999 -9999 -9999 -9999
-9999 -9999 5175 4900 4687 4975 4763 4372 4132 3713 3683 3833 3832 3968 4168 4189 3818 3108 3108 3207 3259 3358 3237 3498 3560 3645 3687 3527 3359 3214 2790 2184 2519 3124 3770 4184 4607 4633 4721 4672 4626 4425 3992 3435 3397 3831 4414 4676 4993 4670 4439 4916 5336 5002 4797 4862 4985 5093 4839 4603 4423 4419 4187 3907 3500 2865 2628 3517 4085 4922 4824 4365 4087 3678 3360 3620 3877 3758 3265 3601 4291 4509 4451 4195 4278 4223 3850 4359 4772 4578 4308 4292 4529 4416 4708 4763 4133 3733 3402 2633 2602 2602 2886 3354 3881 4321 4032 3770 4051 4563 4736 4937 5052 5017 5131 5923 6124 6427 6974 6813 6810 6582 6476 6195 5976 5735 5279 4617 4471 4497 4982 5312 5815 6236 6362 6845 6281 6143 6052 5919 5755 5751 5777 5732 5357 5378 5423 5475 5600 5769 6273 5450 5063 5125 4887 4665 4374 4086 3764 3743 3922 4193 4503 4945 4897 5196 4741 4667 4272 3818 3498 3529 3546 3546 3742 4046 4149 4140 4050 3940 4063 4328 4625 4706 4639 5152 5006 4918 5313 5633 5839 5289 5222 5440 5913 5486 5335 5307 5148 4811 5161 5535 -9999 -9999 -9999 -9999 -9999 -9999 -9999 -9999 -9999
-9999 -9999 4611 4477 4436 4622 4649 4772 4342 3986 3777 3627 3495 3489 3489 3514 3249 3371 3227 3108 3010 2976 2976 2976 3024 3068 2963 2969 2846 2775 2734 2171 2386 3002 3505 3930 4082 3900 4242 4713 4389 3788 3428 3173 3729 4243 4747 4909 4373 3999 4178 4847 5694 5622 5540 5191 5134 4553 4439 4580 4777 4859 4308 3924 3445 2637 2593 3401 4150 4276 4016 3807 3336 3310 2999 2876 3125 3052 3111 3425 3750 3903 3670 3967 4173 3652 3572 4240 4162 4590 4145 3982 3975 4140 4082 4307 4346 3757 3366 2892 2602 2602 2783 3384 3902 4497 4707 4600 4244 4415 4663 4719 4839 5119 5423 5475 5887 6336 5838 5732 6434 5919 5735 5551 5362 5028 4851 4638 4520 4540 4764 5262 6059 5981 5953 6341 6633 6430 6218 6067 5841 5999 6030 5990 5703 5424 5459 5475 5532 5638 6107 5992 5156 4534 4526 4595 4176 3847 3819 4005 4329 4637 4814 5338 5549 5464 5177 4850 4658 4121 3636 3548 3571 3589 3587 3587 3587 3587 3587 3587 3587 3688 3831 4107 4296 4567 4625 4876 5051 5264 5334 5029 5162 5633 6008 5634 5423 5339 5022 4811 5048 5325 -9999 -9999 -9999 -9999 -9999 -9999 -9999 -9999 -9999
-9999 4657 4538 4389 4236 4069 4293 4503 4771 4464 4217 4214 3994 3827 3641 3489 3560 3928 3810 3470 3491 3569 3153 3071 2913 2860 2860 2813 2813 2696 2302 2112 2230 2756 3111 3449 3424 3776 4133 4320 3934 3336 2991 3456 4053 4576 4769 4264 3782 3772 4391 5005 5371 5086 5333 4848 4697 4426 4114 3957 4149 4175 4124 4123 3433 2554 2651 3231 3998 3748 3480 3104 2881 2597 2543 2503 2406 2417 2764 2926 3149 3331 3546 4025 3951 3708 3307 3762 3853 4162 4019 3626 3430 3652 3660 3817 4014 3800 3597 3149 2647 2602 2904 3375 3723 3964 4456 5179 5244 5436 5107 4860 4901 5065 5183 5797 6145 5716 5440 5582 6490 6197 5784 5586 5218 5010 4779 4813 4817 4722 4765 5339 5818 5872 5755 5794 6011 6634 7318 7197 6736 6383 6330 6407 6206 6160 5861 5732 5733 5727 5775 5660 4924 4515 4227 4070 3926 3901 4029 4449 4843 4936 5295 5807 5589 5242 5012 4879 4394 3966 3563 3550 3578 3605 3610 3587 4069 4006 4117 4037 4037 3776 3737 3794 3861 3904 4062 4311 4660 4754 5322 4926 5048 5479 5840 5577 5158 5321 4761 5014 5265 5536 -9999 -9999 -9999 -9999 -9999 -9999 -9999 -9999 -9999
4694 4473 4393 4254 4027 3912 3933 4298 4347 4348 4553 4622 4401 4221 4006 3964 4216 4220 4293 3990 4069 3947 3883 3349 3575 3115 3437 3221 3424 3130 2718 2339 2093 2335 2601 2903 3499 3954 4249 3943 3501 2885 3414 3906 4200 4675 4548 3925 3487 4184 4728 5072 4904 4658 5048 5220 4693 4573 4377 3756 3482 3482 3282 2996 2996 2552 2554 3235 3556 3102 2664 2526 2395 2384 2340 2317 2283 2334 2311 2569 2722 2863 3140 3387 3617 3369 2787 3329 3542 3534 3687 3389 3180 3237 3162 3294 3537 3139 2770 2602 2602 2602 2602 3068 3706 4085 4389 4665 4883 5013 5140 5572 5600 5545 5740 5398 5642 5238 5359 5932 6809 7113 6566 6110 5753 5482 5454 5049 4924 5016 5053 5106 5533 5641 5722 6094 6286 6792 7210 7402 7664 7420 7110 6845 6626 6716 6661 6527 6360 5841 5432 5359 4681 4181 4124 4057 4016 4268 4571 4552 4988 5439 5596 5507 5017 4664 4507 4423 3999 3701 3643 3953 3909 3636 3631 3630 4230 4732 4959 4715 4742 4548 4274 4158 3914 3893 3949 3982 4089 4405 4806 4585 4753 5161 5400 5328 5193 4834 4727 5261 5888 -9999 -9999 -9999 -9999 -9999 -9999 -9999 -9999 -9999 -9999
4799 4588 4674 4577 4245 3867 3838 3893 3910 3941 4173 4481 4707 4460 4338 4434 4661 4919 4530 4378 4426 4286 4118 3961 3879 3737 3944 3801 3619 2990 2855 2563 2221 2093 2535 2809 3116 3387 3601 3322 3063 2811 3641 3872 4453 4588 4148 3789 3389 4014 4790 4863 4349 4363 4796 4958 4542 4247 4171 4081 3747 3703 3443 3367 3121 2552 2285 2787 3001 2578 2305 2277 2202 2225 2169 2169 2169 2169 2169 2169 2169 2233 2481 2871 2851 2876 2466 2748 2793 2867 3079 2747 2513 2526 2551 2602 2957 2602 2602 2602 2641 2910 3229 2757 3063 3617 3916 4169 4391 4488 5118 5629 6256 5836 5438 5244 5153 5155 5467 5940 6763 6746 6405 6372 6299 5785 5374 5186 5135 5178 5141 5179 5521 5701 6095 6727 6594 6276 6355 6412 6740 6857 7211 6899 6847 7168 7154 6655 6390 5562 4943 4938 4437 4331 4253 4116 4324 4767 5040 5410 4968 5044 5217 5680 5399 4744 4436 4094 3750 3738 4032 4462 3962 3663 3665 3696 4155 4654 5124 4977 5455 4933 4577 4956 4539 4146 4136 3981 4023 4054 4205 4349 4613 4789 4987 5234 4869 4574 4802 5016 5352 -9999 -9999 -9999 -9999 -9999 -9999 -9999 -9999 -9999 -9999
5228 4767 4741 4638 4888 4159 3782 3746 3673 3604 3856 4107 4686 4920 5029 4983 4739 4556 4411 4427 4155 4246 4185 4039 4040 4095 4141 4120 3964 3682 3228 2771 2459 2015 2196 2499 2790 2945 2985 2703 2541 3125 3701 3959 3816 4264 3951 3383 3528 4034 4470 4434 3830 4241 4688 5026 4735 4520 4575 4293 4291 4204 4171 3993 3402 2874 2285 2325 2579 2282 2207 2203 2169 2169 2169 2233 2169 2169 2445 2612 2561 2445 2241 2241 2268 2268 2268 2268 2268 2478 2558 2476 2476 2517 2578 2638 2602 2602 2638 2759 3370 3523 3755 3856 3424 3195 3357 3644 3893 4637 5334 5990 6260 5705 5203 5039 5050 5157 5435 5780 6609 6278 5938 5952 6521 5844 5788 5450 5623 6013 5836 6089 6378 6647 6637 6046 5481 5515 5554 5782 5812 6178 6668 6989 7106 6955 6651 5984 6009 5836 5393 4863 4473 4472 4718 4229 4233 4730 5217 5536 5545 5880 6160 5586 5246 5104 4445 3959 3823 3931 4465 4545 3997 3666 3696 3771 4327 4819 5139 5487 5255 4935 4943 4917 4546 4765 4725 4179 4089 4062 4097 4133 4138 4243 4674 4829 4563 4884 5247 5020 5368 -9999 -9999 -9999 -9999 -9999 -9999 -9999 -9999 -9999 -9999
5609 4886 4778 5125 5572 4614 3844 3860 3829 3552 3530 4041 4461 4829 5290 4995 4413 4005 3938 3943 3820 3917 3664 3587 3682 3635 3664 3726 3998 3709 3280 3104 2746 2303 1898 2149 2393 2345 2335 2541 3079 3538 3869 3616 3412 3968 3783 3046 3364 3895 4363 4069 3735 4314 4575 4278 4106 4043 4110 4198 4111 3817 3874 4174 3607 3061 2636 2243 2169 2169 2169 2169 2219 2256 2338 2591 2275 2366 2185 2185 2584 2989 2428 2297 2289 2444 2570 2717 2627 2391 2476 2667 2859 3016 3291 3084 2986 2837 3058 3357 3738 4061 4065 4552 4264 4216 4029 3777 3930 4193 4641 5307 5529 5247 4908 4968 5221 6043 6249 6206 5939 5691 5761 5940 5867 6607 6593 6562 6663 7023 6550 6567 6714 6292 5554 5289 5141 5116 5125 5318 5381 5573 6029 6444 6700 6513 6215 5907 5887 5473 5275 4623 4601 4646 4952 4445 4286 4602 5075 5490 5501 6119 6108 5359 5030 4879 4478 3868 3871 4147 4648 4717 4122 3710 3708 3805 4343 4659 4945 5426 5487 4945 5168 4897 4650 5143 4592 4299 4672 4521 4242 4146 4169 4199 4269 4422 4834 5191 5226 5373 5545 -9999 -9999 -9999 -9999 -9999 -9999 -9999 -9999 -9999 -9999
5534 5437 5140 5615 5234 4414 4113 4089 4254 3582 3509 3912 4275 4714 4911 4617 4374 4102 3746 3614 3589 3461 3231 3202 3297 3263 3168 3553 3767 3489 3451 3362 2979 2615 2256 1877 1976 2186 2475 3100 3304 3136 3205 3146 3236 3639 3652 2892 3163 3697 3833 3467 3898 4394 3996 3499 3297 3316 3495 3615 3435 3072 3339 3824 3587 3343 3122 2816 2457 2228 2169 2352 2781 2824 2851 2950 2354 2775 2703 2510 2185 2499 2770 2682 2670 2921 2877 3093 3086 2944 2987 3021 3405 3566 3738 3552 3427 3507 3675 3841 4114 4595 4779 4521 5079 5186 4955 4603 4497 4699 5019 5440 5151 4914 4820 4909 5163 5798 6183 5647 5480 5469 5672 5674 5766 6579 7353 7365 6890 6508 5911 5604 5770 5737 5386 4916 4812 4838 4971 5084 5108 5276 5604 6308 6459 6293 5754 5726 5862 5708 5037 4706 4643 4662 5193 4632 4369 4645 4886 5057 5604 6160 5800 5280 4798 4435 4047 3928 4040 4496 4988 4570 3980 3731 3718 3779 4244 4642 5053 5363 5811 5578 5041 4827 4915 5064 4507 4428 4941 4614 4783 4747 4283 4219 4250 4385 4947 5116 5566 5691 5658 -9999 -9999 -9999 -9999 -9999 -9999 -9999 -9999 -9999 -9999
-9999 4843 4901 5085 4735 4344 4426 4662 4216 3509 3587 3862 4222 4635 5330 4880 4737 4217 4129 4142 3990 3521 3525 3362 3139 2900 2794 3039 3123 3077 3001 3264 3164 2982 2678 2135 1840 2005 2428 2880 2718 2698 2725 2684 2928 3340 3526 2975 2892 3348 3161 3136 3766 4262 4177 3640 3037 2629 2806 3014 2707 2562 2832 3556 2982 2609 2326 2205 2156 2171 2169 2538 3275 3331 3521 2953 2599 3229 3077 2893 2524 2372 2372 2372 2372 2372 2600 3051 3340 3534 3606 3581 4021 4134 4248 4173 3895 3701 3500 3489 3578 3825 4193 4527 4702 4650 4917 5226 5473 5582 5719 5875 5246 4806 4772 5396 5311 5475 6189 5622 5249 5307 5462 5714 6556 6706 6832 6573 5955 5386 5122 4794 4923 4947 5204 5081 4712 4672 4736 4865 4895 5255 5622 5921 6283 6300 5629 5610 5719 5849 5690 4840 4714 4716 5215 4859 4429 4506 5027 5499 5289 5608 5231 5044 4972 4544 3994 3994 4292 4689 4970 4557 3982 3757 3766 3878 4308 4660 5032 5480 5644 5955 5383 4915 5005 4783 4528 4777 4903 4781 5183 5186 4695 4269 4273 4298 4443 4921 5275 5275 5413 -9999 -9999 -9999 -9999 -9999 -9999 -9999 -9999 -9999 -9999
-9999 4662 4614 4640 5025 4999 4749 4179 3792 3405 3492 4043 4353 4640 5250 5113 4799 4619 4468 4206 3822 3718 3917 3767 3479 3179 3033 2621 2570 2579 2805 2681 2753 2815 2676 2685 2363 1835 2356 2446 2383 2478 2524 2494 2640 3076 3256 2747 2566 2801 2844 3615 3634 3700 3802 3688 3398 2991 2240 2315 2175 2163 2488 3099 2721 2281 2126 2156 2176 2169 2255 2631 3163 3797 3443 2856 2800 3420 3617 3193 3044 2839 2552 2573 2461 2393 2372 2609 2859 3235 3501 3734 4005 3886 3626 3334 3134 3134 3287 3462 3755 3797 3797 3797 3921 4001 4235 4542 4969 5165 5597 5717 5063 4692 4796 5698 6601 6376 5762 5161 5168 5266 5866 6225 6452 6482 6646 6689 5841 5188 4770 4551 4508 4761 5121 4963 4693 4615 4637 4760 5130 5355 5771 5967 6073 6159 5791 5544 5489 5749 5111 4865 4729 4747 5195 5358 4679 4550 4607 4730 4866 5588 5232 4630 4496 4376 4044 4040 4500 4658 4957 4537 3990 3791 3779 3947 4435 4726 4940 5034 5258 5628 5817 5324 5160 4832 4758 5151 5044 5007 5340 5117 4706 4352 4326 4325 4429 4811 5297 5498 5421 -9999 -9999 -9999 -9999 -9999 -9999 -9999 -9999 -9999 -9999
-9999 4638 4368 4284 4404 4746 4613 4234 3732 3347 3594 4005 4558 4997 4937 5436 5010 4906 4849 4388 4151 4364 4222 4125 3772 3551 3360 3007 2810 2554 2304 2266 2167 2101 2137 2324 2164 1835 2268 1976 2026 2151 2318 2388 2429 2631 2926 2865 2304 2883 3041 2917 3005 3119 3175 3123 2639 2280 2126 2126 2126 2126 2126 2614 2662 2298 2126 2368 2457 2559 2743 2869 3174 3636 3542 2902 3076 3587 3875 3505 3468 3210 3034 3000 2888 2652 2409 2372 2509 2887 2998 3325 3179 2943 2943 2967 3351 3618 3955 4105 4341 4585 4457 4421 4246 4161 4156 4203 4337 4535 4853 5126 5108 4612 4874 5831 5764 5478 5351 5057 5091 5650 5273 5187 5796 6548 6704 6292 6141 5575 5044 4609 4440 4454 4933 4948 4769 4564 4610 4802 5319 5967 6591 6238 6098 6082 6085 5673 5446 5358 5193 5144 4903 4863 5418 5540 4891 4730 4739 5069 5445 5878 6120 5498 4419 4211 4121 4358 4862 5017 5079 4699 4121 3796 3804 3880 4068 4302 4655 5055 5521 5809 6034 5906 5415 5181 5440 5719 5888 5974 5554 5080 4569 4409 4331 4362 4380 4483 4838 5307 5559 -9999 -9999 -9999 -9999 -9999 -9999 -9999 -9999 -9999 -9999
-9999 -9999 4444 3979 3797 4268 4633 4387 3790 3287 3713 4064 4434 4505 4721 5347 4765 4634 4489 4235 4117 4003 3976 3822 3652 3568 3215 2979 2584 2359 2236 2236 2192 2206 2101 1890 1856 1835 1835 1835 1835 2056 2309 2103 2139 2418 2676 2737 2147 2761 2354 2325 2417 2500 2412 2510 2352 2126 2126 2126 2126 2126 2126 2126 2126 2126 2199 2429 2468 2578 2893 3409 3634 3934 3688 2902 3450 3633 4122 4025 3643 3325 3446 3619 3531 3180 2581 2471 2372 2372 2575 2793 2575 2958 3385 3622 4004 4175 4376 4661 4931 4684 4625 4765 4664 4726 4494 4294 4259 4335 4375 4415 4482 4544 4842 5149 4994 5161 5090 4939 4950 5053 5088 5156 5265 5803 6364 5984 5558 5164 4901 4704 4402 4368 4412 4453 4475 4525 4712 5130 5112 5566 6347 6905 6382 6062 6021 6035 5781 5284 5262 5241 5407 5590 5982 6218 5620 5404 5389 5943 6403 6774 7028 6465 5529 4457 4221 4382 4543 4693 4793 4841 4354 3863 3830 3840 4115 4656 4910 5245 5138 5277 5415 5952 5881 5851 6041 5560 5312 5404 5251 4766 4541 4695 4836 4436 4409 4424 4543 4969 5552 -9999 -9999 -9999 -9999 -9999 -9999 -9999 -9999 -9999 -9999
-9999 -9999 4517 4089 3705 3594 3834 3741 3401 3273 3656 3946 4251 4451 4758 4908 4834 4947 4673 4214 3862 3501 3382 3382 3220 2965 2804 2670 2659 2732 2753 2853 2618 2095 1802 1816 1978 1835 1835 1920 1850 1835 1835 1835 1916 1916 2237 2306 2090 1987 1929 1970 1970 1970 1970 2005 2168 2126 2280 2228 2126 2126 2438 2503 2514 2479 2635 2846 3121 3338 3367 3319 3761 4064 3371 2971 3604 4161 4251 4197 3740 3542 3877 3770 3355 2893 2587 2556 2457 2897 2591 2575 2663 2748 2889 3086 3251 3637 4054 4345 4717 4755 4971 5119 4896 4852 5028 4751 4625 4689 4482 4434 4468 4513 4548 4635 4706 4733 4860 4885 4968 4998 5239 5884 6068 5949 5315 4980 5162 4885 4516 4300 4328 4366 4413 4433 4471 4517 4709 4878 4923 5523 6324 6782 6756 6210 5956 5920 5829 5523 5472 5696 6156 6289 6269 6275 6242 6425 6535 6468 6839 6878 6619 5971 5502 4913 4561 4640 5502 5508 5574 5360 4768 4231 3858 3882 3954 4296 4708 4919 5275 5860 5589 5558 5809 5985 5651 5505 5166 4985 4825 4676 4788 5211 5090 4950 4444 4457 4448 4730 5284 -9999 -9999 -9999 -9999 -9999 -9999 -9999 -9999 -9999 -9999
-9999 -9999 4818 4271 3977 3653 3462 3462 3313 3252 3631 4119 4564 4617 4590 5058 5494 4899 4150 4051 4248 3666 3390 3227 3114 3101 3044 3104 3521 3496 3170 2918 2229 1779 1779 1779 1835 1925 2233 2538 2020 1951 2087 2079 1993 1927 1916 1916 1916 1929 2065 2259 2094 2149 2079 2015 2126 2382 2779 2440 2634 2323 2480 3025 3057 2939 3016 3171 3336 3748 3893 3808 3990 4065 3515 3033 3617 4250 4606 4112 3846 3783 3922 3533 3134 3013 2895 2574 2517 2679 3017 2907 2717 2723 2723 2723 2940 3276 3590 4004 4070 4121 4370 4498 4441 4297 4509 4668 4865 4871 4966 5051 5044 5049 4826 4980 4995 4962 5040 5202 5630 6020 6199 6416 5881 5327 5025 4746 4682 4979 4474 4288 4297 4351 4719 4627 4495 4548 4780 4859 5118 5451 6425 6506 6634 6145 5918 5880 5764 5714 5707 5944 5990 6053 6112 6156 6201 6236 6295 6494 6747 6407 5961 5790 5378 5164 4898 5063 5272 5693 5687 4860 4383 4361 3891 3907 3882 4373 4877 5364 5388 5239 5154 5358 5845 5676 5322 5430 5461 5016 4781 5090 5646 5480 5227 4915 4514 4503 4478 4890 5139 5647 -9999 -9999 -9999 -9999 -9999 -9999 -9999 -9999 -9999
-9999 -9999 4960 4700 4288 4083 4154 4026 3611 3227 3363 3817 4124 4009 4441 4752 5129 5295 4745 4427 4421 4219 3727 3529 3896 3926 3824 4019 3942 3468 2900 2615 2337 1779 2288 2542 2633 2601 2741 2841 2486 2249 2760 2311 2163 2047 2018 2121 2134 2280 2356 2182 2646 2734 2663 2199 2748 3087 3008 2597 2950 2634 2551 2849 3207 3524 3636 3823 3924 3911 4412 4248 4476 4161 3475 3130 3660 4235 4734 4393 4244 4181 3973 3678 3424 3370 3048 2774 2720 2587 2723 3145 3273 3155 2986 2770 2723 2723 3152 3407 3489 3530 3720 3857 3971 3855 4019 4191 4251 4498 4451 4385 4806 5106 5104 5144 5393 5709 5800 5822 5638 5363 5363 5869 5753 5450 5379 4720 4444 4373 4258 4258 4259 4962 5537 5178 4650 4646 4868 5041 5615 6142 6601 6442 6366 6190 6083 6124 6110 5812 5868 5910 6015 6356 6255 5938 6004 6235 6263 6562 6853 6726 5997 5541 5336 5310 5723 5736 5999 5904 5858 5269 4740 4277 3957 3936 3915 4366 4733 4733 4845 5042 5287 5489 5858 5815 5268 5049 4959 4897 4975 5674 5526 5033 4887 4693 4550 4538 4544 4773 5146 5661 -9999 -9999 -9999 -9999 -9999 -9999 -9999 -9999 -9999
-9999 -9999 -9999 4696 4945 4936 4741 4450 4034 3348 3227 3251 3515 3755 4361 4138 4380 4545 5081 5145 5452 4994 4196 4321 4739 4830 4575 4437 4368 3808 3783 3193 2418 1779 2483 3015 3240 3329 3324 3421 3011 2942 2946 2565 2662 2340 2673 2583 2501 2712 2939 2347 2738 3150 2773 2485 3097 3464 2858 2698 3167 2937 2680 2689 2878 3001 3424 3815 4402 4504 4694 5096 4634 4023 3619 3328 3544 4200 4578 4776 4679 4450 4083 3876 3806 3505 3160 2932 2737 2666 2661 2824 2904 2937 3215 3300 3057 2723 2723 2733 2855 2997 3162 3114 3232 3394 3464 3656 3634 4017 4005 4326 4403 4604 4490 4852 5119 4954 4951 5199 5155 4933 5138 5297 5101 5574 5204 5114 5094 4588 4319 4193 4193 4480 5143 5378 5069 4753 4815 5050 5133 6013 6796 6356 6273 6209 6195 6732 6335 6044 5956 5953 6647 6508 5898 5196 5306 5981 6301 6622 6443 6628 6231 5598 5526 5858 6102 6209 5834 5681 5330 5160 5015 4516 3970 3995 3974 4355 4735 5159 5428 5429 5526 5687 5404 5951 5983 5586 5416 5444 5781 5686 5831 5720 5422 5048 4589 4572 4563 4922 5213 5507 5520 -9999 -9999 -9999 -9999 -9999 -9999 -9999 -9999
-9999 -9999 -9999 -9999 -9999 -9999 4541 4143 3940 3686 3410 3191 3199 3452 3798 3566 3800 4159 4573 5218 5649 5308 5111 5043 4348 4165 4107 3781 3699 3835 3483 2969 2561 1736 2053 2239 2593 2929 3158 3782 3740 3660 3190 3224 3259 2873 3064 2746 2699 2996 3270 2622 2837 3382 3104 2911 3513 3467 2828 2835 3431 3488 3293 3048 2964 3120 3675 3854 4553 4845 5014 5391 4731 4336 4004 3803 3811 4051 4441 4661 4836 4504 4307 4301 4006 3361 3694 3262 2977 2698 2691 2856 2908 2962 3009 3043 3504 3084 2923 2867 2733 2733 2733 2733 2733 2784 2978 3090 3251 3315 3622 3651 4060 3833 4176 4602 4600 4447 4797 5046 4711 4873 5399 4915 4939 5333 5325 5987 5524 4809 4336 4166 4160 4202 4394 4501 4729 5045 5735 6010 6186 6641 7016 6431 6374 6572 7080 7040 6179 6091 6120 6415 6283 5608 5414 4951 4912 5549 6194 5798 5579 5460 6077 6280 6388 6610 6867 6879 6424 5723 5262 4892 4758 4492 4033 4016 4043 4071 4483 4660 5233 5595 5382 5194 5127 5327 5878 5718 5833 5846 5822 5494 5011 5122 4999 4640 4610 4597 4620 4652 4675 5090 5456 -9999 -9999 -9999 -9999 -9999 -9999 -9999 -9999
-9999 -9999 -9999 -9999 -9999 -9999 5194 5090 4372 3822 3657 3643 3191 3103 3237 3725 4246 4430 4636 4770 5221 5526 4765 4138 3770 3409 3533 3322 3300 3391 3306 2969 2761 2234 1736 2329 2739 2945 3210 3433 3904 4045 3841 3891 3434 3479 3417 2839 2958 3382 3342 2870 3050 3438 3353 3294 3815 3376 2912 3146 3433 3924 3425 3471 3356 3250 3703 4128 4359 4471 4658 5057 5059 4891 4498 4132 4153 4347 4418 4575 4785 5095 4777 4209 3829 4024 3961 3653 3042 2750 2893 3427 3274 3099 3029 3078 3071 3513 3515 3386 3202 3318 3235 3095 3088 3092 2965 2965 2965 2965 3088 3292 3585 3597 3876 4157 3986 4534 4708 4543 4585 5025 4868 4690 5315 4998 5052 5731 5638 5062 4633 4119 4119 4129 4870 5143 5499 6149 6590 7040 7202 7635 7366 6685 6490 6504 6607 6789 7032 6499 6382 6461 5594 5318 5011 4805 4820 5065 6081 5445 5348 5235 5298 5777 6354 6675 7492 7599 6957 6318 5927 5508 5053 4384 4127 4098 4065 4089 4112 4494 4928 5459 4882 4952 5101 5234 5318 5444 5794 5483 5340 5173 4907 4805 4699 4679 4641 4951 4660 4664 4700 4698 5210 5663 -9999 -9999 -9999 -9999 -9999 -9999 -9999
-9999 -9999 -9999 -9999 -9999 -9999 -9999 5403 4445 4005 3888 4111 3615 3101 3055 3392 3958 4438 4509 4830 4626 4914 4933 4365 3812 3224 2868 2783 2685 2914 2985 2593 2339 1720 2057 2677 3178 3604 3756 3967 4211 4574 4393 4193 3972 3916 3351 2999 3120 3751 3498 3134 3350 3848 3677 3714 4353 3316 3223 3595 3937 3916 3675 3451 3441 3493 3717 3859 3936 4097 4373 4530 4687 5271 4925 4318 4297 4547 4599 4760 5094 5426 4750 4312 4158 4101 3580 3186 2800 2780 3093 3899 3661 3503 3325 3094 3144 3187 3767 3938 3737 3832 3739 3322 3758 3368 3393 3435 3203 3061 2965 2965 3072 3213 3523 3676 3758 4137 4369 4274 4586 4379 4228 4686 4735 4735 5344 5121 5063 5148 4615 4146 4079 4142 4796 5457 5854 6067 6446 6785 6992 7254 6787 7002 7201 6921 6547 5953 5795 5886 6269 5995 5585 4996 4806 4728 4723 5365 5585 4840 4817 4865 4985 5429 5902 6387 6424 6956 6657 6287 6540 5834 5266 4804 4467 4455 4120 4114 4119 4189 4678 5105 4707 4977 5325 5214 5389 5276 5436 6026 5746 5731 5587 5110 4728 4727 5033 5260 5126 5231 4718 4744 4747 5313 5885 -9999 -9999 -9999 -9999 -9999 -9999
-9999 -9999 -9999 -9999 -9999 -9999 -9999 5269 4552 4144 4493 4351 3899 3376 3019 3116 3538 3874 4106 4336 4182 4611 4654 4185 3793 3086 2762 2534 2248 2127 2257 1908 1716 1863 2317 2871 3192 3225 3529 3817 4063 4339 4556 4777 4406 3724 3364 3421 3550 3927 3658 3503 3642 4271 4058 4131 4198 3602 3643 4050 4270 4098 4017 3549 3497 3511 3536 3593 3593 3847 4163 4114 4377 4758 5071 4510 4421 4467 4543 4654 4863 5207 5104 4686 4511 3965 3459 3096 2865 3130 3561 4219 4093 3838 3594 3353 3203 3196 3377 3823 4223 4207 3927 3778 4106 3679 4031 3322 3685 3569 3274 2965 2965 2965 3045 3209 3452 3696 3893 3909 4145 3770 4203 4558 4377 4669 4832 4709 5132 5258 4731 4079 4022 4069 4607 5182 4915 5038 5877 6583 6660 6338 5727 5796 6282 5918 5279 4851 5001 5095 5019 5081 5115 5473 5154 4687 4646 4788 4931 4776 4814 4824 4984 5536 6057 5834 5797 6532 6203 5988 6260 6466 5986 5392 5030 4966 4604 4174 4168 4205 4240 4631 4593 4592 4695 5092 5187 5072 5210 5439 5401 5418 5438 4856 4812 4874 5332 5323 5500 5634 5046 4768 4777 4972 5271 5762 -9999 -9999 -9999 -9999 -9999
-9999 -9999 -9999 -9999 -9999 -9999 -9999 5097 4538 4662 4767 4538 4154 3832 3271 3019 3023 3362 3681 3817 3863 4129 4567 4241 3941 3718 3549 3461 3161 2602 1879 1716 1909 1989 2079 2285 2528 2736 3064 3336 3627 3720 4126 4604 4666 4083 3659 3886 4307 4198 4048 3968 4038 4317 4571 4514 4593 4146 4170 4295 4497 4414 4095 3836 3739 3608 3571 3608 3640 3648 3693 4110 4578 4724 4872 5031 4866 4798 4902 5066 4892 4878 5041 5083 4343 3813 3363 2916 2884 3224 3753 4152 4579 4307 3918 3600 3236 3252 3266 3523 4028 4505 4491 4409 4284 4259 4059 3545 4098 3716 3778 3582 3261 3151 3005 3010 3010 3221 3279 3512 3624 3748 4163 4084 4071 4476 4386 4503 4739 5053 4695 4230 3958 4020 4520 4424 4628 5278 5767 6319 6075 5370 4757 4711 4943 5610 4923 4756 4710 4664 4653 4796 4995 5272 4835 4608 4616 4621 4654 4708 4734 4907 5809 6047 5275 5221 5174 5575 5869 5812 5705 5734 5853 5992 5852 5621 5149 4682 4225 4201 4237 4263 4568 5111 4778 4790 4875 4984 5184 5714 5298 5052 4946 4894 4891 5143 5137 5354 5194 5104 4979 4827 4829 4828 5181 5696 -9999 -9999 -9999 -9999 -9999
-9999 -9999 -9999 -9999 -9999 -9999 -9999 -9999 -9999 -9999 -9999 4652 4147 3762 3546 3217 2945 2930 3121 3134 3257 3691 4427 4642 4071 3584 3386 3205 3055 2679 1792 1716 2183 2380 2488 2489 2505 2565 2565 2802 3074 3550 3962 4232 4963 4854 4486 4713 5205 4952 4358 4470 4673 4598 4946 4991 4871 4584 4578 5098 5082 4579 4302 4112 3946 4038 3954 3813 3680 3660 3734 3752 4075 4141 4272 4740 5018 4924 4949 5077 5244 5482 5209 4802 4317 3735 3101 2974 3273 3629 3674 4160 4674 4360 4114 3682 3577 3314 3316 3334 3934 4401 4641 4705 4755 4716 4215 4158 4522 4196 4284 3762 3650 3668 3445 3164 3105 3010 3153 3231 3318 3413 3652 3622 3923 3930 3912 3960 4372 4640 4666 4087 3898 3978 4207 4594 4634 4861 5582 6141 6066 5177 4585 4530 4777 5116 5501 4994 5008 4618 4602 4610 4991 4740 4543 4564 4597 4689 4823 4740 4932 5457 5844 5259 5487 5069 5101 5413 5959 5721 5644 5653 5725 5868 5974 6027 5497 5077 4840 4304 4284 4314 4912 5419 5531 5448 5459 5544 5854 6024 6236 5743 5112 5034 5225 5409 5615 5878 5321 5231 5103 5121 4845 4865 4964 5587 5897 -9999 -9999 -9999 -9999
-9999 -9999 -9999 -9999 -9999 -9999 -9999 -9999 -9999 -9999 -9999 4643 4412 4182 3728 3584 3384 3085 2930 2930 2873 3020 3593 4148 3795 3330 2854 2578 2291 2195 1716 1874 2233 2505 2799 3208 3188 2969 2925 2689 2689 3290 3742 4286 4567 5005 5365 5532 5759 5211 4944 5046 5373 5618 5506 5515 5578 5310 5126 5626 5384 4749 4671 4495 4316 4364 4288 4227 4210 3993 3883 3839 3900 4107 4173 4513 5154 5251 5042 5123 5501 4982 4478 4276 4065 3552 3103 3255 3965 4316 4498 4415 4616 4671 4291 3889 3869 3345 3355 3347 3699 3976 4145 4356 4801 4956 4584 4536 4778 4572 4150 3787 4068 4166 3680 3388 3612 3441 3127 3127 3216 3277 3341 3405 3522 3476 3614 3997 4163 4292 4378 4225 3820 3940 4565 4913 4979 4806 5013 5654 5388 5023 4426 4530 4806 5196 5621 5728 5104 4780 4585 4545 4511 4495 4510 4540 4847 5274 5807 5462 5799 6284 6459 5464 5023 5039 5114 5245 5544 5734 5595 5594 5608 5668 5756 5810 5612 5695 5048 4386 4390 4367 4988 5382 5266 5619 5689 5774 5969 5538 5650 5832 5858 5144 5184 5315 5479 5646 6026 5742 5296 4997 4924 4911 4934 5039 5396 5710 -9999 -9999 -9999
-9999 -9999 -9999 -9999 -9999 -9999 -9999 -9999 -9999 -9999 -9999 4846 4411 4203 4264 4034 3629 3385 2998 2978 2865 2889 3082 3632 3992 3741 3568 3195 2509 2330 1853 1686 2081 2243 2646 3267 3750 3577 3270 3287 2984 2915 3443 3916 4361 4850 4920 4699 4978 5637 6007 6167 6017 6384 6409 6333 6545 6128 5859 6259 5588 5179 5464 5204 5101 4882 4489 4444 4644 4403 4309 4174 4252 4298 4323 4408 4653 5174 5118 4932 5027 4989 4686 4142 3706 3232 3198 3724 4433 4809 5128 4832 4873 4445 4201 4391 3825 3399 3387 3383 3441 3491 3698 4039 4427 4736 5072 5294 4879 4496 4236 4222 4532 4266 3704 3773 4164 3925 3747 3415 3224 3276 3329 3364 3399 3435 3462 3571 3600 3869 3918 3983 3763 3884 4246 4420 4386 4622 5074 5525 4908 4496 4336 4626 5284 6113 5702 5940 5429 5137 5101 4658 4506 4466 4465 4716 5194 5047 5490 5123 5824 5790 5565 5583 4978 4961 5357 5636 5957 5956 5562 5532 5474 5460 5469 5466 5085 5336 4697 4490 4436 4446 4523 4974 5020 5238 5465 5409 5367 5461 5777 5704 5538 5286 5231 5285 5476 5732 5853 5828 5530 5415 5347 5259 4975 4984 5088 5287 5693 5863 -9999
-9999 -9999 -9999 -9999 -9999 -9999 -9999 -9999 -9999 -9999 -9999 -9999 4614 4543 4653 4181 3771 3666 3408 3277 2842 2519 2786 3307 3380 3619 3864 3282 3008 2538 2384 1850 1686 1942 2334 2900 3516 3958 3665 3747 3445 2961 3112 3671 4008 4560 4328 4212 4608 5030 5486 6089 6344 6684 7004 7321 7387 7050 6881 6942 6295 6024 -9999 -9999 -9999 -9999 -9999 -9999 -9999 5404 4543 4707 4864 4823 4661 4694 5030 5190 4634 4486 4394 4249 4305 4311 4075 3363 3335 3726 4165 4478 5096 5518 4851 4418 4477 4414 3955 3445 3442 3666 3568 3505 3541 3714 4051 4278 4643 5077 5491 5227 5056 4950 4850 4268 3845 3958 4407 4514 4042 3424 3816 3742 3547 3408 3410 3430 3480 3507 3537 3581 3616 3653 3706 3810 3835 3921 4227 4597 4949 5046 4919 4318 4321 4767 5322 5161 5268 5226 5496 6003 5375 4993 4629 4438 4428 4413 4626 4742 4811 5064 4945 5011 5436 5192 4900 4909 5068 5407 5893 6304 5868 5526 5414 5383 5293 5207 4913 4857 4711 4518 4552 4586 4626 4774 4963 5060 5184 5231 5274 5325 5385 5550 5909 6074 5524 5388 5439 5566 5618 5724 6045 5967 5479 5555 5040 5031 5025 5165 5331 5631 -9999
-9999 -9999 -9999 -9999 -9999 -9999 -9999 -9999 -9999 -9999 -9999 -9999 -9999 -9999 4684 4180 3931 3926 3515 3202 3029 2778 2506 2559 2867 3236 3323 3587 3246 3008 2446 1711 1686 2058 2392 2661 3090 3577 4097 4143 3818 3453 3034 3253 3746 4127 3765 3858 4213 4554 4844 5301 5586 6063 6792 7365 7149 6727 -9999 -9999 -9999 -9999 -9999 -9999 -9999 -9999 -9999 -9999 -9999 -9999 5274 5627 5620 5450 5387 5336 5653 5675 5140 4729 4542 4273 4071 3886 3663 3474 3451 4134 4569 4928 5267 5378 4851 4600 4845 4362 3778 3468 3485 4102 3884 3657 3597 3617 3778 4077 4445 4761 5156 5554 6185 5815 5197 4456 4027 4564 5144 4574 3898 3664 3981 4488 4367 4051 3823 3601 3518 3509 3548 3576 3636 3676 3669 3688 3748 3784 3926 4335 4431 4701 4737 4153 4192 4695 5178 4704 4714 5170 5955 5832 5527 5283 4931 4457 4412 4396 4479 4608 4710 4777 4872 5135 5365 5040 4838 4874 4986 5225 5607 6436 6337 6018 5524 5330 5295 5184 5063 4895 4751 4781 5230 5587 5436 5163 5087 5116 5142 5223 5326 5344 5425 5463 5889 5776 5894 5612 5511 5529 6007 6009 5502 5361 5353 5128 5099 5062 5077 5201 5353 5714 6258
-9999 -9999 -9999 -9999 -9999 -9999 -9999 -9999 -9999 -9999 -9999 -9999 -9999 -9999 -9999 4336 4416 4180 3888 3714 3615 3231 2885 2506 2271 2375 2588 3307 3485 3146 2577 1862 1686 1899 2054 2609 2983 3428 3822 4056 4353 4053 3548 3165 3313 3649 3660 3892 4294 4562 5118 5609 6055 6189 6928 6850 6565 6346 6282 -9999 -9999 -9999 -9999 -9999 -9999 -9999 -9999 -9999 -9999 -9999 -9999 -9999 -9999 -9999 6121 6115 6530 6301 6047 5697 4887 4440 4345 4280 3817 3598 3572 3726 4022 4463 4929 5435 5208 5336 4814 4330 3771 3561 3558 4056 4359 3912 3641 3666 3707 4053 4345 4532 4841 5419 5506 4985 4855 4534 4230 4830 4838 4226 3915 3859 4396 4603 4945 4614 4252 4375 3777 3839 3681 3598 3641 3651 3674 3703 3722 3739 3772 3827 3982 4087 4170 4087 4233 4758 4807 4496 4672 5303 5221 5135 5373 5689 4888 4534 4372 4370 4644 5130 5534 5469 5561 5124 4892 4846 4809 4896 5274 5199 5553 5416 5655 5581 6114 5920 5508 5314 5213 5282 5245 5414 5387 5746 5604 5497 5172 5187 5267 5570 6098 5729 5544 5564 5634 5693 5924 6113 5653 5703 5833 6057 6121 5452 5209 5161 5178 5145 5212 5701 5830 6078 -9999
-9999 -9999 -9999 -9999 -9999 -9999 -9999 -9999 -9999 -9999 -9999 -9999 -9999 -9999 -9999 -9999 -9999 -9999 4532 4282 3797 3567 3341 2924 2564 2168 2324 2720 3194 3104 2505 2055 1686 1911 2193 2390 2818 3026 3598 3710 3533 4496 4183 3697 3334 3374 3559 4117 4942 5260 5750 5578 5824 6210 6088 5775 5549 5510 5655 -9999 -9999 -9999 -9999 -9999 -9999 -9999 -9999 -9999 -9999 -9999 -9999 -9999 -9999 -9999 -9999 -9999 7191 6782 6342 5895 5390 5161 4586 4298 4015 3963 4192 3858 3915 4134 4709 5086 5206 4909 4529 4266 4074 3755 3798 4351 4493 4322 3948 3712 3728 4049 4743 5307 5723 6247 5721 5291 4707 4402 4384 5050 4732 4087 3899 4189 4965 5562 5213 5132 5111 4569 3986 4534 4377 4124 3741 4328 4265 3953 3766 3744 3757 3796 3824 3830 3862 3903 4141 4251 4321 4265 4582 4700 4644 5011 5052 5674 4978 4442 4347 4336 4468 4715 5073 5293 5786 5592 5310 5164 4755 4727 4709 4902 5243 5190 5328 5281 5433 5449 5370 5645 5847 6197 6323 5919 5988 5910 5701 5438 5446 5647 5982 5886 5980 -9999 -9999 -9999 -9999 -9999 -9999 5851 6179 6058 -9999 5893 5825 5600 5368 5230 5217 5560 5374 5518 5996 -9999 -9999
-9999 -9999 -9999 -9999 -9999 -9999 -9999 -9999 -9999 -9999 -9999 -9999 -9999 -9999 -9999 -9999 -9999 -9999 -9999 4585 4202 3983 3493 3344 3056 2510 2095 2393 3096 3102 2322 1919 1686 2121 1911 2344 2778 2722 2610 2769 3112 3942 4768 4520 3903 3523 3925 4447 4984 5106 4959 4835 5458 5065 4981 4602 4550 4706 5528 6515 -9999 -9999 -9999 -9999 -9999 -9999 -9999 -9999 -9999 -9999 -9999 -9999 -9999 -9999 -9999 -9999 6856 6101 5367 4986 4963 4836 4609 4520 4385 4881 4735 4282 4180 4156 4249 4667 4932 5215 5117 4943 4367 4014 4026 4593 5024 4649 4128 3800 3780 4021 4397 4895 5544 6184 5428 4763 4522 4507 4859 5213 4544 4048 4151 4745 5528 6269 5760 5110 4904 4607 4510 5201 4732 4284 3990 4631 4664 4105 3972 3950 3797 3807 3815 3851 3852 3890 3915 3934 3946 4012 4244 4220 4459 4914 5371 5026 4929 4389 4321 4292 4583 4867 5538 5832 6199 5769 5373 5604 5125 4655 4662 4885 5077 4989 5032 5147 5112 5121 5151 5450 5953 -9999 -9999 -9999 -9999 -9999 5749 5603 5553 5662 -9999 -9999 -9999 -9999 -9999 -9999 -9999 -9999 -9999 -9999 -9999 -9999 -9999 6176 5743 5638 5364 5275 5282 5505 5901 5876 5691 -9999 -9999
-9999 -9999 -9999 -9999 -9999 -9999 -9999 -9999 -9999 -9999 -9999 -9999 -9999 -9999 -9999 -9999 -9999 -9999 -9999 -9999 4567 4362 3972 3530 3146 2816 2196 2095 2678 2726 2283 1818 1686 1938 2162 2139 2139 2139 2650 3012 3416 3627 4202 4600 4193 3658 3687 4306 4707 4557 4550 4911 5346 4801 4384 4127 4127 4485 5357 6040 -9999 -9999 -9999 -9999 -9999 -9999 -9999 -9999 -9999 -9999 -9999 -9999 -9999 -9999 -9999 -9999 -9999 6646 6156 5563 5313 4882 4741 4861 4977 5308 4758 4448 4373 4506 4409 4413 4511 4998 5456 4953 4327 4190 4332 4883 5135 4354 3843 3836 4028 4013 4483 4868 5083 6146 5684 4897 4708 5045 5662 4934 4331 4142 4280 4853 5492 6081 5695 5134 4819 4592 5002 5505 4902 4240 4485 5132 4865 4392 4575 4389 3929 3962 3972 3894 3860 3910 3919 3936 3975 3983 4002 4088 4395 4640 4685 4753 4898 4349 4286 4267 4608 4985 5017 5157 5101 5191 5031 5099 4709 4617 4640 4707 4756 4833 4895 4924 4984 5063 5296 5932 -9999 -9999 -9999 -9999 -9999 -9999 -9999 -9999 -9999 -9999 -9999 -9999 -9999 -9999 -9999 -9999 -9999 -9999 -9999 -9999 -9999 -9999 -9999 -9999 -9999 5926 5363 5338 5467 5955 -9999 -9999 -9999 -9999 -9999
-9999 -9999 -9999 -9999 -9999 -9999 -9999 -9999 -9999 -9999 -9999 -9999 -9999 -9999 -9999 -9999 -9999 -9999 -9999 -9999 4054 3918 3772 3866 3471 2831 2407 1934 2451 2180 1949 1702 1601 2190 2706 2887 3272 2671 2452 2452 2743 3263 3696 4260 4672 3993 3778 3870 4097 4334 4600 5263 4718 4281 4018 3801 3962 4428 4813 5741 -9999 -9999 -9999 -9999 -9999 -9999 -9999 -9999 -9999 -9999 -9999 -9999 -9999 -9999 -9999 -9999 -9999 -9999 6842 6411 5915 5439 5352 5605 5499 4990 4678 4585 4973 4697 4715 4862 4827 4942 5006 4680 4368 4364 4867 5336 5297 4529 3868 3882 4079 4479 4483 4696 5278 5499 5565 5023 4874 5670 5381 4838 4294 4239 4303 4637 4882 5038 5852 6044 5495 4887 5012 5798 5296 4539 5150 5743 5542 5382 4880 4260 4009 4489 4397 4318 4063 4147 4106 3958 3997 3998 4026 4037 4070 4165 4185 4245 4257 4210 4260 4236 4545 4898 4816 5111 4934 5309 4759 4713 4584 4587 4605 4861 5235 5090 5267 5329 5468 5266 5402 6036 -9999 -9999 -9999 -9999 -9999 -9999 -9999 -9999 -9999 -9999 -9999 -9999 -9999 -9999 -9999 -9999 -9999 -9999 -9999 -9999 -9999 -9999 -9999 -9999 -9999 5665 5446 5461 5769 -9999 -9999 -9999 -9999 -9999 -9999
-9999 -9999 -9999 -9999 -9999 -9999 -9999 -9999 -9999 -9999 -9999 -9999 -9999 -9999 -9999 -9999 -9999 -9999 -9999 -9999 -9999 3402 3286 3139 3105 2911 2509 1934 1934 1746 1954 1601 1604 2047 2888 3397 3645 3264 3257 2965 3278 3559 3722 4101 4689 4384 3871 3858 4168 4545 5213 5351 4778 4181 3659 3749 4234 4909 5272 -9999 -9999 -9999 -9999 -9999 -9999 -9999 -9999 -9999 -9999 -9999 -9999 -9999 -9999 -9999 -9999 -9999 -9999 -9999 -9999 -9999 -9999 -9999 -9999 -9999 5688 5149 4786 4752 5268 4982 5089 5405 5647 5540 5260 4577 4559 4543 4800 5444 5402 4722 4060 3982 4015 4330 4669 5015 5062 5208 5024 5228 5533 5704 5798 5054 4419 4275 4298 4487 4745 5230 5949 -9999 5593 5258 5204 5972 5562 5297 5562 6498 5905 5381 4700 4129 4112 4600 5063 4767 4364 4330 4418 4391 4103 4023 4039 4062 4078 4114 4128 4146 4169 4189 4217 4215 4212 4296 4542 4719 4918 5066 4674 4686 4549 4537 4556 4844 5305 5198 5427 6005 5496 5012 5081 5777 5704 -9999 -9999 -9999 -9999 -9999 -9999 -9999 -9999 -9999 -9999 -9999 -9999 -9999 -9999 -9999 -9999 -9999 -9999 -9999 -9999 -9999 -9999 -9999 5852 5603 5549 5693 -9999 -9999 -9999 -9999 -9999 -9999 -9999
-9999 -9999 -9999 -9999 -9999 -9999 -9999 -9999 -9999 -9999 -9999 -9999 -9999 -9999 -9999 -9999 -9999 -9999 -9999 -9999 -9999 3321 3042 2918 2855 2736 2520 2331 2242 1867 1588 1569 1631 2467 2796 3217 3786 3847 3808 3599 3330 3885 4402 4265 4432 4393 4134 4404 4836 4886 4797 4703 4321 3740 3602 4019 4717 4571 5015 -9999 -9999 -9999 -9999 -9999 -9999 -9999 -9999 -9999 -9999 -9999 -9999 -9999 -9999 -9999 -9999 -9999 -9999 -9999 -9999 -9999 -9999 -9999 -9999 -9999 6284 5510 5241 5213 5612 5633 5684 6130 5758 5291 5185 4996 4853 4743 4819 4851 5260 5025 4340 4072 4072 4208 4510 5026 4907 4704 4734 4813 4979 5479 5831 5089 4485 4383 4337 4369 4746 5342 5918 -9999 -9999 -9999 5487 6200 6162 5464 5868 5480 4805 4832 4539 4232 4325 4851 5357 4833 4535 4769 4786 4520 4180 4099 4064 4077 4093 4115 4113 4135 4148 4167 4196 4212 4219 4249 4265 4277 4392 4546 4499 4799 4915 4525 4499 4906 4995 4900 5397 5580 5040 4852 5111 5895 5637 5348 -9999 -9999 -9999 -9999 -9999 -9999 -9999 -9999 -9999 -9999 -9999 -9999 -9999 -9999 -9999 -9999 -9999 -9999 -9999 -9999 -9999 -9999 -9999 5874 5770 -9999 -9999 -9999 -9999 -9999 -9999 -9999 -9999
-9999 -9999 -9999 -9999 -9999 -9999 -9999 -9999 -9999 -9999 -9999 -9999 -9999 -9999 -9999 -9999 -9999 -9999 -9999 -9999 -9999 3638 3267 2984 2761 2655 2553 2448 2169 1717 1596 1560 1818 2106 2589 3318 3459 3409 3631 4040 3940 3906 4526 5224 5148 4630 4645 5122 4972 4714 4402 4134 3953 3460 3573 4085 4252 4366 5095 -9999 -9999 -9999 -9999 -9999 -9999 -9999 -9999 -9999 -9999 -9999 -9999 -9999 -9999 -9999 -9999 -9999 -9999 -9999 -9999 -9999 -9999 -9999 -9999 -9999 -9999 5993 5810 5870 6222 6448 6240 6090 5754 5428 5278 5178 5066 5246 5133 4919 4948 5207 4842 4204 4164 4163 4539 4527 4539 4607 4805 5245 5366 6033 5394 5086 4856 4681 4412 4456 4830 5304 -9999 -9999 -9999 -9999 -9999 -9999 -9999 5777 5187 4824 4763 4628 4353 4338 4591 4897 5519 5035 4708 4392 4345 4288 4235 4292 4265 4183 4109 4111 4120 4141 4164 4178 4200 4213 4250 4254 4276 4292 4319 4326 4326 4486 4540 4453 4471 4669 4720 4876 5009 5103 5082 4750 4994 5148 5452 5234 5399 -9999 -9999 -9999 -9999 -9999 -9999 -9999 -9999 -9999 -9999 -9999 -9999 -9999 -9999 -9999 -9999 -9999 -9999 -9999 -9999 -9999 -9999 -9999 -9999 -9999 -9999 -9999 -9999 -9999 -9999 -9999 -9999
-9999 -9999 -9999 -9999 -9999 -9999 -9999 -9999 -9999 -9999 -9999 -9999 -9999 -9999 -9999 -9999 -9999 -9999 -9999 -9999 -9999 -9999 3453 3075 2735 2553 2233 2135 2029 1766 1622 1545 1725 2235 2824 2824 2566 2785 3207 3686 4412 4428 4365 4882 5286 5526 5522 4986 4524 4212 3885 3675 3442 3325 3414 3844 4058 4276 4758 -9999 -9999 -9999 -9999 -9999 -9999 -9999 -9999 -9999 -9999 -9999 -9999 -9999 -9999 -9999 -9999 -9999 -9999 -9999 -9999 -9999 -9999 -9999 -9999 -9999 -9999 -9999 6414 6462 6693 6234 5902 5743 5634 5505 5384 5331 5434 5430 5166 5099 5066 4801 4567 4361 4233 4250 4300 4416 4475 5060 5479 6013 6482 5859 5008 4690 4533 4468 4443 4573 5738 5247 -9999 -9999 -9999 -9999 -9999 -9999 -9999 5548 5184 5068 5436 5125 4562 4404 4711 5291 5415 4826 4792 4606 4577 4645 4845 4613 4673 4275 4340 4359 4454 4534 4589 4641 4312 4306 4290 4273 4267 4301 4319 4329 4356 4376 4431 4445 4452 4464 4510 4573 4625 4640 4765 4684 4958 5013 5315 5145 5137 5477 -9999 -9999 -9999 -9999 -9999 -9999 -9999 -9999 -9999 -9999 -9999 -9999 -9999 -9999 -9999 -9999 -9999 -9999 -9999 -9999 -9999 -9999 -9999 -9999 -9999 -9999 -9999 -9999 -9999 -9999 -9999
-9999 -9999 -9999 -9999 -9999 -9999 -9999 -9999 -9999 -9999 -9999 -9999 -9999 -9999 -9999 -9999 -9999 -9999 -9999 -9999 -9999 -9999 3512 3254 2922 2592 2530 2553 2523 2061 1624 1537 1593 2063 2186 2154 2438 2810 3171 3710 4236 5000 4908 4934 4825 5013 5117 5428 4893 4194 3599 3257 3116 3253 3653 4258 4507 4725 -9999 -9999 -9999 -9999 -9999 -9999 -9999 -9999 -9999 -9999 -9999 -9999 -9999 -9999 -9999 -9999 -9999 -9999 -9999 -9999 -9999 -9999 -9999 -9999 -9999 -9999 -9999 -9999 -9999 -9999 -9999 6484 6207 5868 5791 5670 5602 5700 5998 5500 5323 5546 5411 5109 4642 4548 4692 4919 4724 4902 5020 5370 5993 6435 6832 6525 5496 4723 4512 4533 4948 5279 5501 -9999 -9999 -9999 -9999 -9999 -9999 -9999 -9999 -9999 5642 5624 4955 4698 4539 4477 4716 5120 5371 5478 4879 5115 5069 5294 5079 5211 5157 4719 4918 4885 5019 5256 5407 5209 4539 4441 4497 4438 4659 4420 4344 4355 4371 4379 4397 4424 4481 4493 4517 4546 4573 4589 4614 4630 4747 4805 5035 5044 5036 5226 5365 -9999 -9999 -9999 -9999 -9999 -9999 -9999 -9999 -9999 -9999 -9999 -9999 -9999 -9999 -9999 -9999 -9999 -9999 -9999 -9999 -9999 -9999 -9999 -9999 -9999 -9999 -9999 -9999 -9999 -9999
-9999 -9999 -9999 -9999 -9999 -9999 -9999 -9999 -9999 -9999 -9999 -9999 -9999 -9999 -9999 -9999 -9999 -9999 -9999 -9999 -9999 -9999 -9999 3353 3250 2881 2752 2663 2602 2407 1718 1527 1580 1697 1938 2299 2430 2865 3479 3904 4318 4661 4841 4657 4362 4724 5022 4603 4475 3969 3350 2996 3266 3692 3830 4094 4704 -9999 -9999 -9999 -9999 -9999 -9999 -9999 -9999 -9999 -9999 -9999 -9999 -9999 -9999 -9999 -9999 -9999 -9999 -9999 -9999 -9999 -9999 -9999 -9999 -9999 -9999 -9999 -9999 -9999 -9999 -9999 -9999 -9999 -9999 -9999 6367 -9999 -9999 -9999 6317 5847 5951 6106 5873 5077 5004 5106 4945 5233 5830 5611 5866 6156 6192 6340 -9999 -9999 5588 5288 4933 5288 5550 -9999 -9999 -9999 -9999 -9999 -9999 -9999 -9999 -9999 -9999 -9999 -9999 5634 5011 4690 4601 4554 4836 5351 -9999 -9999 -9999 -9999 -9999 -9999 -9999 -9999 -9999 5388 5593 5493 5750 5999 -9999 5428 4957 4973 5092 4927 5096 4707 4493 4532 4440 4455 4564 4578 4577 4508 4519 4551 4589 4599 4643 4651 4670 4739 4883 4968 5073 5237 5370 -9999 -9999 -9999 -9999 -9999 -9999 -9999 -9999 -9999 -9999 -9999 -9999 -9999 -9999 -9999 -9999 -9999 -9999 -9999 -9999 -9999 -9999 -9999 -9999 -9999 -9999 -9999 -9999 -9999 -9999
-9999 -9999 -9999 -9999 -9999 -9999 -9999 -9999 -9999 -9999 -9999 -9999 -9999 -9999 -9999 -9999 -9999 -9999 -9999 -9999 -9999 -9999 -9999 -9999 -9999 3348 2967 2813 2630 2313 1927 1521 1527 1567 1763 2004 2421 2884 3358 3785 3889 3985 4511 3978 3853 4363 4454 4138 4082 3656 3146 2912 3527 4070 4431 4579 -9999 -9999 -9999 -9999 -9999 -9999 -9999 -9999 -9999 -9999 -9999 -9999 -9999 -9999 -9999 -9999 -9999 -9999 -9999 -9999 -9999 -9999 -9999 -9999 -9999 -9999 -9999 -9999 -9999 -9999 -9999 -9999 -9999 -9999 -9999 -9999 -9999 -9999 -9999 -9999 -9999 -9999 -9999 -9999 6266 5759 5735 5771 5514 5518 5916 -9999 -9999 -9999 -9999 -9999 -9999 -9999 -9999 -9999 -9999 -9999 -9999 -9999 -9999 -9999 -9999 -9999 -9999 -9999 -9999 -9999 -9999 -9999 -9999 -9999 5180 5396 4935 4778 5217 -9999 -9999 -9999 -9999 -9999 -9999 -9999 -9999 -9999 -9999 -9999 -9999 -9999 -9999 -9999 -9999 -9999 -9999 5837 5533 5483 5682 5415 5346 5387 5242 5383 5513 5197 4914 4601 4676 4887 5113 4982 4693 4664 4717 4835 4935 5030 5062 5114 5179 -9999 -9999 -9999 -9999 -9999 -9999 -9999 -9999 -9999 -9999 -9999 -9999 -9999 -9999 -9999 -9999 -9999 -9999 -9999 -9999 -9999 -9999 -9999 -9999 -9999 -9999 -9999 -9999 -9999 -9999
-9999 -9999 -9999 -9999 -9999 -9999 -9999 -9999 -9999 -9999 -9999 -9999 -9999 -9999 -9999 -9999 -9999 -9999 -9999 -9999 -9999 -9999 -9999 -9999 -9999 -9999 -9999 3088 2747 2545 2213 1675 1516 1524 1612 1832 2301 2884 3206 3408 3213 3654 4115 3494 3512 3887 3895 3814 3483 3226 2808 3115 3663 3900 4048 -9999 -9999 -9999 -9999 -9999 -9999 -9999 -9999 -9999 -9999 -9999 -9999 -9999 -9999 -9999 -9999 -9999 -9999 -9999 -9999 -9999 -9999 -9999 -9999 -9999 -9999 -9999 -9999 -9999 -9999 -9999 -9999 -9999 -9999 -9999 -9999 -9999 -9999 -9999 -9999 -9999 -9999 -9999 -9999 -9999 -9999 6486 6125 6307 6264 6242 -9999 -9999 -9999 -9999 -9999 -9999 -9999 -9999 -9999 -9999 -9999 -9999 -9999 -9999 -9999 -9999 -9999 -9999 -9999 -9999 -9999 -9999 -9999 -9999 -9999 -9999 -9999 -9999 5374 5272 -9999 -9999 -9999 -9999 -9999 -9999 -9999 -9999 -9999 -9999 -9999 -9999 -9999 -9999 -9999 -9999 -9999 -9999 -9999 -9999 -9999 -9999 -9999 -9999 -9999 -9999 -9999 -9999 -9999 -9999 5840 5664 5350 5214 5615 5525 5249 5182 5026 4952 4976 4996 5068 5091 -9999 -9999 -9999 -9999 -9999 -9999 -9999 -9999 -9999 -9999 -9999 -9999 -9999 -9999 -9999 -9999 -9999 -9999 -9999 -9999 -9999 -9999 -9999 -9999 -9999 -9999 -9999 -9999 -9999 -9999 -9999
-9999 -9999 -9999 -9999 -9999 -9999 -9999 -9999 -9999 -9999 -9999 -9999 -9999 -9999 -9999 -9999 -9999 -9999 -9999 -9999 -9999 -9999 -9999 -9999 -9999 -9999 -9999 -9999 3314 3012 2553 2130 1526 1507 1562 1725 2178 2557 2788 2754 2734 3397 3737 3739 3032 3220 3357 3284 2996 2758 2760 2949 3255 3542 4094 -9999 -9999 -9999 -9999 -9999 -9999 -9999 -9999 -9999 -9999 -9999 -9999 -9999 -9999 -9999 -9999 -9999 -9999 -9999 -9999 -9999 -9999 -9999 -9999 -9999 -9999 -9999 -9999 -9999 -9999 -9999 -9999 -9999 -9999 -9999 -9999 -9999 -9999 -9999 -9999 -9999 -9999 -9999 -9999 -9999 -9999 -9999 6425 6723 -9999 -9999 -9999 -9999 -9999 -9999 -9999 -9999 -9999 -9999 -9999 -9999 -9999 -9999 -9999 -9999 -9999 -9999 -9999 -9999 -9999 -9999 -9999 -9999 -9999 -9999 -9999 -9999 -9999 -9999 -9999 -9999 -9999 -9999 -9999 -9999 -9999 -9999 -9999 -9999 -9999 -9999 -9999 -9999 -9999 -9999 -9999 -9999 -9999 -9999 -9999 -9999 -9999 -9999 -9999 -9999 -9999 -9999 -9999 -9999 -9999 -9999 -9999 -9999 -9999 -9999 -9999 -9999 -9999 -9999 -9999 5472 5265 5097 5133 5158 -9999 -9999 -9999 -9999 -9999 -9999 -9999 -9999 -9999 -9999 -9999 -9999 -9999 -9999 -9999 -9999 -9999 -9999 -9999 -9999 -9999 -9999 -9999 -9999 -9999 -9999 -9999 -9999 -9999 -9999 -9999
-9999 -9999 -9999 -9999 -9999 -9999 -9999 -9999 -9999 -9999 -9999 -9999 -9999 -9999 -9999 -9999 -9999 -9999 -9999 -9999 -9999 -9999 -9999 -9999 -9999 -9999 -9999 -9999 -9999 2887 2743 2191 1708 1498 1599 1693 1815 1959 2108 2209 2606 2919 3156 3692 3280 2789 2789 2787 2557 2679 2892 3138 3226 3679 4032 4744 -9999 -9999 -9999 -9999 -9999 -9999 -9999 -9999 -9999 -9999 -9999 -9999 -9999 -9999 -9999 -9999 -9999 -9999 -9999 -9999 -9999 -9999 -9999 -9999 -9999 -9999 -9999 -9999 -9999 -9999 -9999 -9999 -9999 -9999 -9999 -9999 -9999 -9999 -9999 -9999 -9999 -9999 -9999 -9999 -9999 -9999 6923 6854 -9999 -9999 -9999 -9999 -9999 -9999 -9999 -9999 -9999 -9999 -9999 -9999 -9999 -9999 -9999 -9999 -9999 -9999 -9999 -9999 -9999 -9999 -9999 -9999 -9999 -9999 -9999 -9999 -9999 -9999 -9999 -9999 -9999 -9999 -9999 -9999 -9999 -9999 -9999 -9999 -9999 -9999 -9999 -9999 -9999 -9999 -9999 -9999 -9999 -9999 -9999 -9999 -9999 -9999 -9999 -9999 -9999 -9999 -9999 -9999 -9999 -9999 -9999 -9999 -9999 -9999 -9999 -9999 -9999 -9999 -9999 -9999 -9999 -9999 5696 5681 -9999 -9999 -9999 -9999 -9999 -9999 -9999 -9999 -9999 -9999 -9999 -9999 -9999 -9999 -9999 -9999 -9999 -9999 -9999 -9999 -9999 -9999 -9999 -9999 -9999 -9999 -9999 -9999 -9999 -9999 -9999
-9999 -9999 -9999 -9999 -9999 -9999 -9999 -9999 -9999 -9999 -9999 -9999 -9999 -9999 -9999 -9999 -9999 -9999 -9999 -9999 -9999 -9999 -9999 -9999 -9999 -9999 -9999 -9999 -9999 -9999 2991 2262 1812 1493 1566 1633 1966 2338 2470 2721 2871 3004 3183 3555 3397 3014 2869 2557 2735 3290 3401 3234 3700 3884 4271 -9999 -9999 -9999 -9999 -9999 -9999 -9999 -9999 -9999 -9999 -9999 -9999 -9999 -9999 -9999 -9999 -9999 -9999 -9999 -9999 -9999 -9999 -9999 -9999 -9999 -9999 -9999 -9999 -9999 -9999 -9999 -9999 -9999 -9999 -9999 -9999 -9999 -9999 -9999 -9999 -9999 -9999 -9999 -9999 -9999 -9999 -9999 -9999 -9999 -9999 -9999 -9999 -9999 -9999 -9999 -9999 -9999 -9999 -9999 -9999 -9999 -9999 -9999 -9999 -9999 -9999 -9999 -9999 -9999 -9999 -9999 -9999 -9999 -9999 -9999 -9999 -9999 -9999 -9999 -9999 -9999 -9999 -9999 -9999 -9999 -9999 -9999 -9999 -9999 -9999 -9999 -9999 -9999 -9999 -9999 -9999 -9999 -9999 -9999 -9999 -9999 -9999 -9999 -9999 -9999 -9999 -9999 -9999 -9999 -9999 -9999 -9999 -9999 -9999 -9999 -9999 -9999 -9999 -9999 -9999 -9999 -9999 -9999 -9999 -9999 -9999 -9999 -9999 -9999 -9999 -9999 -9999 -9999 -9999 -9999 -9999 -9999 -9999 -9999 -9999 -9999 -9999 -9999 -9999 -9999 -9999 -9999 -9999 -9999 -9999 -9999 -9999 -9999 -9999 -9999 -9999
-9999 -9999 -9999 -9999 -9999 -9999 -9999 -9999 -9999 -9999 -9999 -9999 -9999 -9999 -9999 -9999 -9999 -9999 -9999 -9999 -9999 -9999 -9999 -9999 -9999 -9999 -9999 -9999 -9999 -9999 3193 2640 2148 1610 1488 1515 1784 2372 2674 2896 3083 3266 3529 3644 3406 2809 2347 2659 3119 3601 3865 3929 3805 -9999 -9999 -9999 -9999 -9999 -9999 -9999 -9999 -9999 -9999 -9999 -9999 -9999 -9999 -9999 -9999 -9999 -9999 -9999 -9999 -9999 -9999 -9999 -9999 -9999 -9999 -9999 -9999 -9999 -9999 -9999 -9999 -9999 -9999 -9999 -9999 -9999 -9999 -9999 -9999 -9999 -9999 -9999 -9999 -9999 -9999 -9999 -9999 -9999 -9999 -9999 -9999 -9999 -9999 -9999 -9999 -9999 -9999 -9999 -9999 -9999 -9999 -9999 -9999 -9999 -9999 -9999 -9999 -9999 -9999 -9999 -9999 -9999 -9999 -9999 -9999 -9999 -9999 -9999 -9999 -9999 -9999 -9999 -9999 -9999 -9999 -9999 -9999 -9999 -9999 -9999 -9999 -9999 -9999 -9999 -9999 -9999 -9999 -9999 -9999 -9999 -9999 -9999 -9999 -9999 -9999 -9999 -9999 -9999 -9999 -9999 -9999 -9999 -9999 -9999 -9999 -9999 -9999 -9999 -9999 -9999 -9999 -9999 -9999 -9999 -9999 -9999 -9999 -9999 -9999 -9999 -9999 -9999 -9999 -9999 -9999 -9999 -9999 -9999 -9999 -9999 -9999 -9999 -9999 -9999 -9999 -9999 -9999 -9999 -9999 -9999 -9999 -9999 -9999 -9999 -9999 -9999 -9999
-9999 -9999 -9999 -9999 -9999 -9999 -9999 -9999 -9999 -9999 -9999 -9999 -9999 -9999 -9999 -9999 -9999 -9999 -9999 -9999 -9999 -9999 -9999 -9999 -9999 -9999 -9999 -9999 -9999 -9999 3095 3164 2468 1888 1519 1480 1614 1904 2125 2441 2720 2851 2997 2976 3262 2937 2347 2398 2948 3263 3257 3491 3976 -9999 -9999 -9999 -9999 -9999 -9999 -9999 -9999 -9999 -9999 -9999 -9999 -9999 -9999 -9999 -9999 -9999 -9999 -9999 -9999 -9999 -9999 -9999 -9999 -9999 -9999 -9999 -9999 -9999 -9999 -9999 -9999 -9999 -9999 -9999 -9999 -9999 -9999 -9999 -9999 -9999 -9999 -9999 -9999 -9999 -9999 -9999 -9999 -9999 -9999 -9999 -9999 -9999 -9999 -9999 -9999 -9999 -9999 -9999 -9999 -9999 -9999 -9999 -9999 -9999 -9999 -9999 -9999 -9999 -9999 -9999 -9999 -9999 -9999 -9999 -9999 -9999 -9999 -9999 -9999 -9999 -9999 -9999 -9999 -9999 -9999 -9999 -9999 -9999 -9999 -9999 -9999 -9999 -9999 -9999 -9999 -9999 -9999 -9999 -9999 -9999 -9999 -9999 -9999 -9999 -9999 -9999 -9999 -9999 -9999 -9999 -9999 -9999 -9999 -9999 -9999 -9999 -9999 -9999 -9999 -9999 -9999 -9999 -9999 -9999 -9999 -9999 -9999 -9999 -9999 -9999 -9999 -9999 -9999 -9999 -9999 -9999 -9999 -9999 -9999 -9999 -9999 -9999 -9999 -9999 -9999 -9999 -9999 -9999 -9999 -9999 -9999 -9999 -9999 -9999 -9999 -9999 -9999
-9999 -9999 -9999 -9999 -9999 -9999 -9999 -9999 -9999 -9999 -9999 -9999 -9999 -9999 -9999 -9999 -9999 -9999 -9999 -9999 -9999 -9999 -9999 -9999 -9999 -9999 -9999 -9999 -9999 -9999 -9999 3091 2596 2184 1733 1481 1472 1590 1843 2073 2358 2529 2478 2523 2943 3118 2498 2315 2577 2585 2808 3353 3794 -9999 -9999 -9999 -9999 -9999 -9999 -9999 -9999 -9999 -9999 -9999 -9999 -9999 -9999 -9999 -9999 -9999 -9999 -9999 -9999 -9999 -9999 -9999 -9999 -9999 -9999 -9999 -9999 -9999 -9999 -9999 -9999 -9999 -9999 -9999 -9999 -9999 -9999 -9999 -9999 -9999 -9999 -9999 -9999 -9999 -9999 -9999 -9999 -9999 -9999 -9999 -9999 -9999 -9999 -9999 -9999 -9999 -9999 -9999 -9999 -9999 -9999 -9999 -9999 -9999 -9999 -9999 -9999 -9999 -9999 -9999 -9999 -9999 -9999 -9999 -9999 -9999 -9999 -9999 -9999 -9999 -9999 -9999 -9999 -9999 -9999 -9999 -9999 -9999 -9999 -9999 -9999 -9999 -9999 -9999 -9999 -9999 -9999 -9999 -9999 -9999 -9999 -9999 -9999 -9999 -9999 -9999 -9999 -9999 -9999 -9999 -9999 -9999 -9999 -9999 -9999 -9999 -9999 -9999 -9999 -9999 -9999 -9999 -9999 -9999 -9999 -9999 -9999 -9999 -9999 -9999 -9999 -9999 -9999 -9999 -9999 -9999 -9999 -9999 -9999 -9999 -9999 -9999 -9999 -9999 -9999 -9999 -9999 -9999 -9999 -9999 -9999 -9999 -9999 -9999 -9999 -9999 -9999
-9999 -9999 -9999 -9999 -9999 -9999 -9999 -9999 -9999 -9999 -9999 -9999 -9999 -9999 -9999 -9999 -9999 -9999 -9999 -9999 -9999 -9999 -9999 -9999 -9999 -9999 -9999 -9999 -9999 -9999 -9999 3054 3010 2659 2047 1552 1471 1469 1530 1812 1975 2048 2121 2211 2657 2766 2295 2133 2705 3088 3150 3397 3658 4121 -9999 -9999 -9999 -9999 -9999 -9999 -9999 -9999 -9999 -9999 -9999 -9999 -9999 -9999 -9999 -9999 -9999 -9999 -9999 -9999 -9999 -9999 -9999 -9999 -9999 -9999 -9999 -9999 -9999 -9999 -9999 -9999 -9999 -9999 -9999 -9999 -9999 -9999 -9999 -9999 -9999 -9999 -9999 -9999 -9999 -9999 -9999 -9999 -9999 -9999 -9999 -9999 -9999 -9999 -9999 -9999 -9999 -9999 -9999 -9999 -9999 -9999 -9999 -9999 -9999 -9999 -9999 -9999 -9999 -9999 -9999 -9999 -9999 -9999 -9999 -9999 -9999 -9999 -9999 -9999 -9999 -9999 -9999 -9999 -9999 -9999 -9999 -9999 -9999 -9999 -9999 -9999 -9999 -9999 -9999 -9999 -9999 -9999 -9999 -9999 -9999 -9999 -9999 -9999 -9999 -9999 -9999 -9999 -9999 -9999 -9999 -9999 -9999 -9999 -9999 -9999 -9999 -9999 -9999 -9999 -9999 -9999 -9999 -9999 -9999 -9999 -9999 -9999 -9999 -9999 -9999 -9999 -9999 -9999 -9999 -9999 -9999 -9999 -9999 -9999 -9999 -9999 -9999 -9999 -9999 -9999 -9999 -9999 -9999 -9999 -9999 -9999 -9999 -9999 -9999 -9999 -9999
-9999 -9999 -9999 -9999 -9999 -9999 -9999 -9999 -9999 -9999 -9999 -9999 -9999 -9999 -9999 -9999 -9999 -9999 -9999 -9999 -9999 -9999 -9999 -9999 -9999 -9999 -9999 -9999 -9999 -9999 -9999 -9999 -9999 3018 2391 1786 1518 1460 1461 1521 1615 1763 1853 1914 2358 2289 1939 2473 2970 3406 3711 3796 4116 -9999 -9999 -9999 -9999 -9999 -9999 -9999 -9999 -9999 -9999 -9999 -9999 -9999 -9999 -9999 -9999 -9999 -9999 -9999 -9999 -9999 -9999 -9999 -9999 -9999 -9999 -9999 -9999 -9999 -9999 -9999 -9999 -9999 -9999 -9999 -9999 -9999 -9999 -9999 -9999 -9999 -9999 -9999 -9999 -9999 -9999 -9999 -9999 -9999 -9999 -9999 -9999 -9999 -9999 -9999 -9999 -9999 -9999 -9999 -9999 -9999 -9999 -9999 -9999 -9999 -9999 -9999 -9999 -9999 -9999 -9999 -9999 -9999 -9999 -9999 -9999 -9999 -9999 -9999 -9999 -9999 -9999 -9999 -9999 -9999 -9999 -9999 -9999 -9999 -9999 -9999 -9999 -9999 -9999 -9999 -9999 -9999 -9999 -9999 -9999 -9999 -9999 -9999 -9999 -9999 -9999 -9999 -9999 -9999 -9999 -9999 -9999 -9999 -9999 -9999 -9999 -9999 -9999 -9999 -9999 -9999 -9999 -9999 -9999 -9999 -9999 -9999 -9999 -9999 -9999 -9999 -9999 -9999 -9999 -9999 -9999 -9999 -9999 -9999 -9999 -9999 -9999 -9999 -9999 -9999 -9999 -9999 -9999 -9999 -9999 -9999 -9999 -9999 -9999 -9999 -9999 -9999 -9999
-9999 -9999 -9999 -9999 -9999 -9999 -9999 -9999 -9999 -9999 -9999 -9999 -9999 -9999 -9999 -9999 -9999 -9999 -9999 -9999 -9999 -9999 -9999 -9999 -9999 -9999 -9999 -9999 -9999 -9999 -9999 -9999 -9999 -9999 2820 2234 1845 1529 1454 1454 1454 1543 1590 1888 2254 1851 2424 2867 3320 3703 -9999 -9999 -9999 -9999 -9999 -9999 -9999 -9999 -9999 -9999 -9999 -9999 -9999 -9999 -9999 -9999 -9999 -9999 -9999 -9999 -9999 -9999 -9999 -9999 -9999 -9999 -9999 -9999 -9999 -9999 -9999 -9999 -9999 -9999 -9999 -9999 -9999 -9999 -9999 -9999 -9999 -9999 -9999 -9999 -9999 -9999 -9999 -9999 -9999 -9999 -9999 -9999 -9999 -9999 -9999 -9999 -9999 -9999 -9999 -9999 -9999 -9999 -9999 -9999 -9999 -9999 -9999 -9999 -9999 -9999 -9999 -9999 -9999 -9999 -9999 -9999 -9999 -9999 -9999 -9999 -9999 -9999 -9999 -9999 -9999 -9999 -9999 -9999 -9999 -9999 -9999 -9999 -9999 -9999 -9999 -9999 -9999 -9999 -9999 -9999 -9999 -9999 -9999 -9999 -9999 -9999 -9999 -9999 -9999 -9999 -9999 -9999 -9999 -9999 -9999 -9999 -9999 -9999 -9999 -9999 -9999 -9999 -9999 -9999 -9999 -9999 -9999 -9999 -9999 -9999 -9999 -9999 -9999 -9999 -9999 -9999 -9999 -9999 -9999 -9999 -9999 -9999 -9999 -9999 -9999 -9999 -9999 -9999 -9999 -9999 -9999 -9999 -9999 -9999 -9999 -9999 -9999 -9999 -9999 -9999 -9999
-9999 -9999 -9999 -9999 -9999 -9999 -9999 -9999 -9999 -9999 -9999 -9999 -9999 -9999 -9999 -9999 -9999 -9999 -9999 -9999 -9999 -9999 -9999 -9999 -9999 -9999 -9999 -9999 -9999 -9999 -9999 -9999 -9999 -9999 -9999 -9999 2579 2205 1795 1456 1454 1476 1496 1954 2252 1737 2097 2548 3073 -9999 -9999 -9999 -9999 -9999 -9999 -9999 -9999 -9999 -9999 -9999 -9999 -9999 -9999 -9999 -9999 -9999 -9999 -9999 -9999 -9999 -9999 -9999 -9999 -9999 -9999 -9999 -9999 -9999 -9999 -9999 -9999 -9999 -9999 -9999 -9999 -9999 -9999 -9999 -9999 -9999 -9999 -9999 -9999 -9999 -9999 -9999 -9999 -9999 -9999 -9999 -9999 -9999 -9999 -9999 -9999 -9999 -9999 -9999 -9999 -9999 -9999 -9999 -9999 -9999 -9999 -9999 -9999 -9999 -9999 -9999 -9999 -9999 -9999 -9999 -9999 -9999 -9999 -9999 -9999 -9999 -9999 -9999 -9999 -9999 -9999 -9999 -9999 -9999 -9999 -9999 -9999 -9999 -9999 -9999 -9999 -9999 -9999 -9999 -9999 -9999 -9999 -9999 -9999 -9999 -9999 -9999 -9999 -9999 -9999 -9999 -9999 -9999 -9999 -9999 -9999 -9999 -9999 -9999 -9999 -9999 -9999 -9999 -9999 -9999 -9999 -9999 -9999 -9999 -9999 -9999 -9999 -9999 -9999 -9999 -9999 -9999 -9999 -9999 -9999 -9999 -9999 -9999 -9999 -9999 -9999 -9999 -9999 -9999 -9999 -9999 -9999 -9999 -9999 -9999 -9999 -9999 -9999 -9999 -9999 -9999 -9999
-9999 -9999 -9999 -9999 -9999 -9999 -9999 -9999 -9999 -9999 -9999 -9999 -9999 -9999 -9999 -9999 -9999 -9999 -9999 -9999 -9999 -9999 -9999 -9999 -9999 -9999 -9999 -9999 -9999 -9999 -9999 -9999 -9999 -9999 -9999 -9999 -9999 -9999 -9999 2060 1481 1439 1499 1596 1901 1712 2300 2653 -9999 -9999 -9999 -9999 -9999 -9999 -9999 -9999 -9999 -9999 -9999 -9999 -9999 -9999 -9999 -9999 -9999 -9999 -9999 -9999 -9999 -9999 -9999 -9999 -9999 -9999 -9999 -9999 -9999 -9999 -9999 -9999 -9999 -9999 -9999 -9999 -9999 -9999 -9999 -9999 -9999 -9999 -9999 -9999 -9999 -9999 -9999 -9999 -9999 -9999 -9999 -9999 -9999 -9999 -9999 -9999 -9999 -9999 -9999 -9999 -9999 -9999 -9999 -9999 -9999 -9999 -9999 -9999 -9999 -9999 -9999 -9999 -9999 -9999 -9999 -9999 -9999 -9999 -9999 -9999 -9999 -9999 -9999 -9999 -9999 -9999 -9999 -9999 -9999 -9999 -9999 -9999 -9999 -9999 -9999 -9999 -9999 -9999 -9999 -9999 -9999 -9999 -9999 -9999 -9999 -9999 -9999 -9999 -9999 -9999 -9999 -9999 -9999 -9999 -9999 -9999 -9999 -9999 -9999 -9999 -9999 -9999 -9999 -9999 -9999 -9999 -9999 -9999 -9999 -9999 -9999 -9999 -9999 -9999 -9999 -9999 -9999 -9999 -9999 -9999 -9999 -9999 -9999 -9999 -9999 -9999 -9999 -9999 -9999 -9999 -9999 -9999 -9999 -9999 -9999 -9999 -9999 -9999 -9999 -9999 -9999 -9999 -9999
